# .PCD v0.7 - Point Cloud Data file format
VERSION 0.7
FIELDS x y z
SIZE 4 4 4
TYPE F F F
COUNT 1 1 1
WIDTH 1391
HEIGHT 1
VIEWPOINT 0 0 0 1 0 0 0
POINTS 1391
DATA ascii
0.20638096 -0.26041526 0.78800005
0.21190286 -0.26074573 0.78900003
0.21538667 -0.26041526 0.78800005
0.047970481 -0.25708669 0.78700006
0.050154287 -0.25676003 0.78600001
0.071862862 -0.25526288 0.78600001
0.13848573 -0.25676003 0.78600001
0.15445524 -0.25775811 0.78600001
0.15869716 -0.25825715 0.78600001
0.16244 -0.25863144 0.78600001
0.16743049 -0.25825715 0.78600001
0.18265143 -0.25825715 0.78600001
0.18789145 -0.25900573 0.78600001
0.20436001 -0.25676003 0.78600001
0.20685527 -0.25775811 0.78600001
0.21284385 -0.25725907 0.78600007
0.21783431 -0.25825718 0.78600007
0.23580001 -0.25676003 0.78600001
-0.071385719 -0.25022572 0.78900003
-0.053238735 -0.25119683 0.78733343
-0.048842859 -0.25022572 0.78900003
-0.0019462857 -0.25137028 0.78600001
0.00074857147 -0.25226861 0.78600001
0.018714286 -0.25226858 0.78600001
0.021334287 -0.2518943 0.78600001
0.026200002 -0.25226858 0.78600001
0.042668574 -0.25376573 0.78600001
0.20585716 -0.25226861 0.78600001
0.21484001 -0.25301716 0.78600001
0.24777716 -0.25152001 0.78600001
0.25077143 -0.25152001 0.78600001
-0.11759859 -0.24609287 0.78900003
-0.11303634 -0.24636126 0.78900009
-0.10743192 -0.24641669 0.78883338
-0.1043162 -0.24540573 0.78800005
-0.097685724 -0.24571715 0.78900003
-0.090807624 -0.24540573 0.78800005
-0.087342232 -0.2465108 0.78833336
-0.08270736 -0.24758328 0.78742868
-0.077291191 -0.24762914 0.78791666
-0.072991267 -0.24765152 0.78863639
-0.067621671 -0.24719374 0.78891677
-0.062544197 -0.24701773 0.78740007
-0.057672169 -0.2479181 0.78644454
-0.051904291 -0.24865523 0.78700006
-0.047032859 -0.24790619 0.78700006
-0.042855717 -0.24759001 0.78600001
-0.037768003 -0.24682975 0.78680009
-0.032215562 -0.24723652 0.78666681
-0.028610289 -0.24670401 0.78640002
-0.0072361915 -0.24802667 0.78600001
-0.0019462857 -0.24867545 0.78600001
0.00074857147 -0.24777716 0.78600001
0.02021143 -0.2492743 0.78600001
0.20136572 -0.24777716 0.78600001
0.23679811 -0.24677907 0.78600001
0.24759001 -0.24796429 0.78600001
0.25226858 -0.24777715 0.78600007
-0.15404287 -0.24120858 0.78900003
-0.13600858 -0.2442143 0.78900003
-0.13450572 -0.24271144 0.78900003
-0.12098001 -0.24271145 0.78900003
-0.1179743 -0.24271144 0.78900003
-0.11271429 -0.24271145 0.78900003
-0.1074543 -0.24271142 0.78900003
-0.10264374 -0.24286418 0.78772736
-0.097561911 -0.24240385 0.78800005
-0.092308581 -0.24240382 0.78800005
-0.087805726 -0.24240382 0.78800005
-0.082561038 -0.2424293 0.78808343
-0.077342443 -0.24253991 0.78844452
-0.072847091 -0.24257493 0.78855562
-0.067600012 -0.24260955 0.78866673
-0.062089317 -0.24243283 0.78755569
-0.057842776 -0.24261267 0.78690922
-0.052267306 -0.24246925 0.7862668
-0.047230002 -0.24289542 0.78716677
-0.042704448 -0.24274132 0.78666675
-0.037276879 -0.2426116 0.78728586
-0.03227048 -0.24240385 0.78800005
-0.027567791 -0.24238929 0.78618193
-0.023847349 -0.24243024 0.78600001
-0.01235143 -0.24104001 0.78600001
-0.0079015885 -0.24195494 0.78600007
0.021334287 -0.24066573 0.78600001
0.22232573 -0.24104002 0.78600001
0.22532001 -0.24029145 0.78600001
0.23729715 -0.24478288 0.78600001
0.2431194 -0.24278671 0.78600007
0.24702859 -0.24253717 0.78600001
0.2597543 -0.24029145 0.78600001
0.26334748 -0.24118972 0.78600001
0.26683146 -0.24134669 0.78700006
-0.15780002 -0.23519716 0.78900003
-0.15223944 -0.23579831 0.78900003
-0.13734443 -0.23686701 0.78900003
-0.13300286 -0.23745143 0.78900003
-0.12548858 -0.23670003 0.78900003
-0.12248288 -0.23745142 0.78900003
-0.11811092 -0.23765635 0.78900009
-0.11309001 -0.23933001 0.78900003
-0.10685316 -0.23880401 0.78900003
-0.10289153 -0.23732516 0.7885834
-0.097646862 -0.23735674 0.78868747
-0.092204586 -0.23772113 0.78840011
-0.087898418 -0.23740081 0.78883332
-0.082650431 -0.23743245 0.78893745
-0.077397145 -0.23745148 0.78900003
-0.072888575 -0.23745143 0.78900003
-0.067632966 -0.23744045 0.78846681
-0.0623358 -0.23732516 0.7885834
-0.057944864 -0.23762982 0.78810006
-0.052307554 -0.23743652 0.78723091
-0.0471652 -0.23746426 0.78836375
-0.042791776 -0.23743699 0.78827286
-0.037433676 -0.23757942 0.7883572
-0.032311432 -0.23745146 0.78900003
-0.027760215 -0.23783346 0.78777784
-0.022457145 -0.23729716 0.78600013
-0.017217143 -0.23729716 0.78600007
-0.012725717 -0.23729716 0.78600007
-0.0074857147 -0.23729716 0.78600013
-0.0022457144 -0.23729716 0.78600007
0.0022457142 -0.23729716 0.78600007
0.0072815591 -0.23716106 0.78600007
0.012725716 -0.23686941 0.78600001
0.016468573 -0.23729716 0.78600001
0.023205716 -0.23580001 0.78600001
0.028445717 -0.23654859 0.78600001
0.031974699 -0.23686941 0.78600001
0.036680002 -0.23580001 0.78600001
0.047160003 -0.23580001 0.78600001
0.15794858 -0.23654859 0.78600001
0.17870501 -0.23602359 0.78675002
0.18310058 -0.23609944 0.78600001
0.18759203 -0.23639886 0.78600001
0.19247316 -0.23627888 0.78760004
0.19807202 -0.23639886 0.78600001
0.20258394 -0.23684752 0.78637499
0.20705488 -0.23639886 0.78600001
0.2125943 -0.23580001 0.78600001
0.21820709 -0.23704083 0.78657144
0.22240712 -0.23695567 0.78628582
0.2272193 -0.23696217 0.78675008
0.23130858 -0.23580001 0.78600001
0.2431194 -0.23713081 0.78600007
0.24702859 -0.23729716 0.78600001
0.2597543 -0.23654859 0.78600001
0.26274863 -0.23729716 0.78600007
0.26739201 -0.23743176 0.78644454
0.27023432 -0.23580001 0.78600001
-0.16306001 -0.23219144 0.78900003
-0.15747797 -0.23240614 0.78900009
-0.15314114 -0.2327926 0.78900003
-0.14051715 -0.23219144 0.78900003
-0.13708204 -0.23240615 0.78900009
-0.13450572 -0.23294288 0.78900003
-0.12624002 -0.23219144 0.78900003
-0.12248287 -0.23219146 0.78900003
-0.11816216 -0.23200358 0.78900003
-0.11121143 -0.23068859 0.78900003
-0.10795525 -0.23118953 0.78900003
-0.10251634 -0.23197676 0.78900009
-0.097685724 -0.23219144 0.78900003
-0.09254086 -0.23268375 0.78881818
-0.087917149 -0.23219146 0.78900003
-0.082657151 -0.23219147 0.78900003
-0.077397145 -0.23219143 0.78900003
-0.072888575 -0.23219146 0.78900003
-0.067551218 -0.2323543 0.78876925
-0.06235059 -0.23212627 0.78877783
-0.057663903 -0.23249647 0.78818196
-0.052696194 -0.23255642 0.78820014
-0.047465526 -0.23237391 0.78860009
-0.042794004 -0.23228565 0.7883001
-0.037661027 -0.23251522 0.78864294
-0.032311432 -0.23219143 0.78900003
-0.027782463 -0.23276979 0.78841674
-0.022487324 -0.23236877 0.78706264
-0.017235715 -0.23230144 0.78683347
-0.012870997 -0.23242114 0.78654557
-0.0074857152 -0.23280573 0.78600013
-0.0021103034 -0.23236765 0.78636372
0.0022483335 -0.23227677 0.7867502
0.0074913101 -0.23224017 0.78662515
0.012578859 -0.23256479 0.78620017
0.017217143 -0.23280573 0.78600007
0.022873018 -0.23263937 0.78600007
0.027697146 -0.23280573 0.78600007
0.032196768 -0.23256479 0.78620017
0.037054285 -0.2322443 0.78600001
0.042369146 -0.23190744 0.78600001
0.047328837 -0.2320125 0.78654557
0.052207451 -0.23231447 0.78618193
0.057640001 -0.23130858 0.78600001
0.062796198 -0.23203377 0.78628582
0.067206532 -0.23190346 0.78657156
0.072489664 -0.23117322 0.78700006
0.078600004 -0.23130858 0.78600001
0.081270956 -0.23108049 0.78650004
0.087582864 -0.23130858 0.78600001
0.093571432 -0.23130858 0.78600001
0.098017156 -0.23179381 0.78672743
0.10180573 -0.23280573 0.78600001
0.10554858 -0.23205715 0.78600001
0.11303429 -0.23130858 0.78600001
0.11810436 -0.23160152 0.78700012
0.1220437 -0.2318999 0.78737509
0.1278328 -0.23134138 0.78757149
0.1327216 -0.23094985 0.78733337
0.13751495 -0.23183914 0.78730005
0.14274439 -0.23255944 0.78720015
0.14715619 -0.23135144 0.78700006
0.15293431 -0.23182037 0.78681833
0.15790346 -0.23215494 0.78692323
0.16254799 -0.23219964 0.78718185
0.1679583 -0.23118459 0.78660005
0.17270614 -0.23280574 0.78600001
0.17641334 -0.23380384 0.78600001
0.18260807 -0.23340088 0.78688896
0.18761881 -0.23377287 0.78800005
0.19768812 -0.23373334 0.78850007
0.20276693 -0.23250076 0.78708339
0.20797019 -0.23424731 0.78833342
0.21246858 -0.23436041 0.78720009
0.21819888 -0.23441716 0.78840011
0.22226001 -0.23382819 0.78728586
0.22770345 -0.23400021 0.78700006
0.23290382 -0.23365304 0.78633344
0.23828521 -0.23249963 0.78714293
0.242801 -0.23230833 0.78685737
0.24748246 -0.23236765 0.78636372
0.25152001 -0.23130858 0.78600001
0.2597543 -0.23430288 0.78600001
0.26317635 -0.23301962 0.78600001
0.2678389 -0.23340459 0.78600001
0.27023432 -0.23280573 0.78600001
-0.14051715 -0.22918573 0.78900003
-0.13701048 -0.22818384 0.78900003
-0.13300286 -0.22843429 0.78900003
-0.12624002 -0.22843431 0.78900003
-0.12229501 -0.22787072 0.78900003
-0.11816216 -0.2278707 0.78900003
-0.11327787 -0.22730717 0.78900003
-0.10775488 -0.22768287 0.78900003
-0.10294573 -0.22918575 0.78900003
-0.097602233 -0.22818382 0.78900003
-0.092425719 -0.2276829 0.78900003
-0.087917149 -0.22768289 0.78900003
-0.082657158 -0.22768289 0.78900003
-0.077397145 -0.22768289 0.78900003
-0.073076427 -0.22787073 0.78900003
-0.06756027 -0.22781952 0.78900009
-0.062583275 -0.22811227 0.78900009
-0.057843924 -0.22761832 0.78877783
-0.053030577 -0.22774601 0.78870004
-0.047700241 -0.22873738 0.78875005
-0.042455718 -0.22881001 0.78900003
-0.038012195 -0.22882704 0.78880006
-0.032311432 -0.22918575 0.78900003
-0.02780286 -0.22843429 0.78900003
-0.023043811 -0.22868477 0.78900003
-0.016907144 -0.22881003 0.78900003
-0.012546533 -0.22850654 0.78814292
-0.0074977782 -0.22865161 0.78716677
-0.0028516192 -0.2289522 0.78820008
0.0037571432 -0.22918573 0.78900003
0.0080152396 -0.22868477 0.78900003
0.013057716 -0.22814308 0.78800011
0.017116366 -0.2282421 0.78763646
0.022491431 -0.22865161 0.78716677
0.027748745 -0.22818927 0.78745461
0.032070797 -0.22816817 0.78722227
0.037321907 -0.22848412 0.78738475
0.04263559 -0.22832078 0.78790921
0.047700241 -0.2287374 0.78875005
0.052504849 -0.22839773 0.78758335
0.057534672 -0.22818802 0.78660011
0.061697744 -0.22822252 0.78762501
0.067164771 -0.22851953 0.78800005
0.077550009 -0.22829857 0.78750008
0.082603596 -0.22752303 0.78684628
0.087632813 -0.22844256 0.78644454
0.092241913 -0.22872791 0.78742862
0.095068574 -0.22981144 0.78600001
0.10293675 -0.22911471 0.78728586
0.1068178 -0.22864413 0.78800005
0.11192059 -0.2296863 0.78660005
0.11602858 -0.22981144 0.78600001
0.16456287 -0.22918573 0.78900003
0.16575001 -0.22949859 0.78750002
0.2442143 -0.22918573 0.78900003
0.24806666 -0.22826953 0.78740007
0.25154254 -0.22691271 0.78633338
0.26324767 -0.22831431 0.78600001
0.26724002 -0.22756575 0.78600013
0.27180097 -0.22717468 0.78620005
0.27542478 -0.22589335 0.78800005
-0.11346573 -0.22467718 0.78900003
-0.10895715 -0.22467716 0.78900003
-0.087917149 -0.22467718 0.78900003
-0.082406677 -0.22467718 0.78900003
-0.078900002 -0.22467716 0.78900003
-0.053351432 -0.22467716 0.78900003
0.018785715 -0.22467716 0.78900003
0.048842859 -0.22467716 0.78900003
0.25220817 -0.22249697 0.78709102
0.25750858 -0.22157714 0.78600001
0.2627486 -0.22232573 0.78600001
0.26724005 -0.22157715 0.78600001
0.27188596 -0.222451 0.78644454
0.27691019 -0.22207844 0.78866673
0.25362498 -0.217905 0.78866673
0.25720939 -0.21771257 0.78654557
0.26237431 -0.21671145 0.78600001
0.26742718 -0.21783432 0.78600001
0.27256763 -0.21757846 0.78733343
0.27686748 -0.21809223 0.78783339
0.28028288 -0.21566002 0.78900003
0.25473434 -0.21265429 0.78900003
0.25791889 -0.21266021 0.78680015
0.2627486 -0.21259432 0.78600013
0.26724002 -0.21259432 0.78600013
0.27265403 -0.21269095 0.78700012
0.27769846 -0.21248859 0.78700012
0.25754842 -0.20774443 0.78800011
0.26247105 -0.20735185 0.7874167
0.26724002 -0.20735431 0.78600007
0.2727074 -0.20764884 0.78763646
0.27745426 -0.2071811 0.78753865
0.2585052 -0.20313349 0.78871435
0.26258188 -0.20260282 0.78723091
0.26765665 -0.20317727 0.78722221
0.27234691 -0.20282033 0.78777778
0.27763882 -0.20206754 0.78825015
0.25864172 -0.19732516 0.78900003
0.26278728 -0.1975669 0.78784615
0.26724002 -0.19762288 0.78600013
0.27208796 -0.19741558 0.78666675
0.27794427 -0.19755672 0.78818184
0.2585988 -0.19204369 0.78900009
0.262611 -0.19283192 0.78783339
0.26746625 -0.19254647 0.78666675
0.27228695 -0.19232538 0.78800011
0.27722207 -0.19284652 0.78845459
0.28028288 -0.19311716 0.78900003
0.25924286 -0.18560287 0.78900003
0.26266667 -0.18761905 0.78800005
0.26766551 -0.1874398 0.78725016
0.27265358 -0.18702626 0.78866673
0.27597526 -0.1873624 0.78850007
0.25924286 -0.18259716 0.78900003
0.2625221 -0.18254411 0.78818184
0.26782379 -0.18235393 0.78860009
0.27271897 -0.1823497 0.78885722
0.27637544 -0.18229659 0.78900003
0.25924286 -0.17658572 0.78900003
0.26226369 -0.17773308 0.78863651
0.26783061 -0.1774445 0.78899997
0.27267399 -0.17748037 0.78872734
0.27662596 -0.17746857 0.78875005
0.25924286 -0.17282858 0.78900003
0.26334733 -0.17277096 0.78816676
0.26810953 -0.17198001 0.78855562
0.27266487 -0.17231172 0.78870004
0.27712056 -0.17298086 0.78855562
0.28028288 -0.17207715 0.78900003
0.27276859 -0.16907144 0.78900003
0.27741423 -0.16790037 0.78676939
0.26224858 -0.1600543 0.78900003
0.27380884 -0.16338454 0.78875005
0.27726126 -0.16287383 0.78810006
0.28028288 -0.16155715 0.78900003
0.26262429 -0.1574243 0.78900003
0.26525429 -0.15855144 0.78900003
0.26274955 -0.15354192 0.78900003
0.26926193 -0.15354192 0.78900003
0.26976287 -0.14803144 0.78900003
-0.070060007 -0.25086001 0.79100001
-0.1502924 -0.2454524 0.79300004
-0.14727144 -0.24620764 0.7930001
-0.14262128 -0.24675524 0.79233336
-0.13936667 -0.24634002 0.79100001
-0.12580667 -0.24634002 0.79100001
-0.12279335 -0.24634002 0.79100007
-0.11902668 -0.24784668 0.79100001
-0.09266001 -0.24684225 0.79100007
-0.089646675 -0.24784668 0.79100001
-0.20618001 -0.24092096 0.79300004
-0.20089334 -0.24092096 0.79300004
-0.19711715 -0.24092096 0.79300004
-0.18503335 -0.24092096 0.79300004
-0.18201241 -0.24167621 0.7930001
-0.1773324 -0.24147366 0.79233336
-0.17258605 -0.24116859 0.79133332
-0.16799335 -0.24106669 0.79100001
-0.16251397 -0.24138615 0.79122221
-0.15744667 -0.24181999 0.79099995
-0.15243964 -0.24245659 0.79159999
-0.14754918 -0.24185085 0.79154545
-0.14238001 -0.24257332 0.79100001
-0.13801068 -0.24257334 0.79099995
-0.13208446 -0.24282448 0.79100001
-0.12731335 -0.24257337 0.79100001
-0.12354667 -0.24332669 0.79100001
-0.11375334 -0.24031335 0.79100001
-0.10772667 -0.24332668 0.79100001
0.27044669 -0.24182002 0.79100001
-0.2116867 -0.2365467 0.79100001
-0.20736976 -0.23756167 0.79250002
-0.20240383 -0.23789999 0.79300016
-0.19706191 -0.23783292 0.79277784
-0.19259337 -0.23721296 0.79214299
-0.18746157 -0.23798317 0.79281837
-0.18208459 -0.23745051 0.792
-0.17708349 -0.23736711 0.79122221
-0.17251335 -0.23730002 0.79099995
-0.16799335 -0.23730002 0.79099995
-0.16272002 -0.23730001 0.79100001
-0.15723144 -0.23773052 0.79100001
-0.15330335 -0.23843001 0.79100001
-0.14765334 -0.23730004 0.79100001
-0.14238 -0.23730002 0.79099995
-0.13936667 -0.23880668 0.79100001
-0.13183334 -0.23730002 0.79100001
-0.12806667 -0.23730001 0.79100001
-0.11576223 -0.23629558 0.79100007
-0.11224668 -0.23730002 0.79099995
-0.10815716 -0.23708479 0.79100001
0.19360667 -0.23579335 0.79100001
0.19511335 -0.23579335 0.79100001
0.22675335 -0.23579335 0.79100001
-0.21234602 -0.23249203 0.7918573
-0.20760256 -0.23251495 0.79266679
-0.20237203 -0.23257655 0.79287511
-0.19699255 -0.23246557 0.79250014
-0.19219677 -0.23259564 0.79139996
-0.18751429 -0.23307507 0.79200006
-0.18210123 -0.23278002 0.79099995
-0.17703335 -0.23278001 0.79099995
-0.17251335 -0.23278001 0.79099995
-0.16799334 -0.23278001 0.79099995
-0.16256934 -0.23278001 0.79099995
-0.15594001 -0.23202668 0.79100001
-0.15217334 -0.23202668 0.79100001
-0.14765334 -0.23278001 0.79100001
-0.14256835 -0.23278004 0.79099995
-0.13936667 -0.23202668 0.79100001
-0.13213468 -0.23262934 0.79099995
-0.12882 -0.23278002 0.79100007
-0.11563666 -0.23315668 0.79100001
-0.11246192 -0.2332105 0.79100001
-0.10747556 -0.23328224 0.79100001
-0.10471334 -0.23353335 0.79100001
0.12461429 -0.2318581 0.79300004
0.12672096 -0.23118716 0.792
0.13820858 -0.23034763 0.79300004
0.14350572 -0.23096478 0.79166669
0.14742421 -0.23071793 0.79220003
0.15180287 -0.23034763 0.79300004
0.15784477 -0.23034763 0.7930001
0.17251335 -0.23127335 0.79100007
0.17876571 -0.23382764 0.79200006
0.18143305 -0.23276636 0.79266667
0.18833335 -0.23278001 0.79100001
0.19259641 -0.23361813 0.79180002
0.1971197 -0.23257083 0.792
0.20114002 -0.23278001 0.79100001
0.20755954 -0.23246621 0.79250002
0.21222192 -0.23387209 0.7930001
0.22374001 -0.23278001 0.79100001
0.22741765 -0.23269668 0.792
0.23185812 -0.23336859 0.79300004
0.23769939 -0.23191431 0.79233336
-0.21620668 -0.22976668 0.79100001
-0.20750166 -0.22732666 0.7930001
-0.20240381 -0.22732669 0.79300016
-0.19700666 -0.22720014 0.79255563
-0.19236529 -0.22761464 0.79209095
-0.18758002 -0.2275067 0.79100001
-0.18230668 -0.22750664 0.79100007
-0.17703333 -0.22750667 0.79100001
-0.1725494 -0.22755413 0.79116672
-0.16802905 -0.22755414 0.79116666
-0.16274585 -0.22754225 0.79112506
-0.15744668 -0.22750668 0.79100001
-0.15272406 -0.22737665 0.79115385
-0.14762676 -0.22784771 0.79166675
-0.14261585 -0.22745693 0.79154557
-0.13836223 -0.22625113 0.79100001
-0.13247906 -0.22729146 0.79100007
-0.12769 -0.22675335 0.79099995
-0.12317001 -0.22562334 0.79100001
-0.11789668 -0.22562334 0.79100001
-0.11164402 -0.22826003 0.79100001
-0.10722445 -0.22725558 0.79100001
-0.10265881 -0.22661638 0.79099995
-0.097180009 -0.22584935 0.79100001
-0.09266001 -0.2252467 0.79100007
-0.083620004 -0.22524668 0.79100001
-0.076840006 -0.22524668 0.79100001
-0.072169341 -0.22554801 0.79100001
-0.067423336 -0.22562334 0.79100001
-0.062225338 -0.22584935 0.79100001
-0.058006674 -0.2252467 0.79100007
-0.051258575 -0.22651906 0.79149997
-0.04731667 -0.22677861 0.79175001
-0.042844553 -0.22679907 0.79233342
-0.03724267 -0.22692423 0.79159993
-0.032420635 -0.22694318 0.79166663
-0.027896192 -0.22618988 0.79166669
-0.022326669 -0.22673717 0.79200006
-0.01753143 -0.22677861 0.79175007
-0.013121716 -0.22637849 0.79179996
-0.0080005722 -0.22690992 0.79260004
-0.0015066668 -0.22826001 0.79100001
0.0022628575 -0.22879905 0.792
0.0075454768 -0.22711071 0.79225004
0.012437144 -0.22576572 0.79150003
0.017326668 -0.2257489 0.79100007
0.022628892 -0.22653651 0.79200006
0.027926192 -0.22605048 0.79250002
0.032710291 -0.22596326 0.79140002
0.03741556 -0.22625113 0.79100007
0.04398191 -0.22593874 0.79166669
0.047079872 -0.226998 0.79185718
0.052636005 -0.22638002 0.79180002
0.057901587 -0.22631972 0.7930001
0.063028894 -0.22650224 0.79100001
0.067214079 -0.22692077 0.79099995
0.072336406 -0.2287472 0.79211122
0.07608667 -0.22826001 0.79100001
0.080606669 -0.22826001 0.79100001
0.089646675 -0.22675335 0.79100001
0.093096197 -0.2272743 0.79149997
0.095673338 -0.22826001 0.79100001
0.10019334 -0.22976668 0.79100001
0.11224668 -0.22976668 0.79100001
0.12731335 -0.22976668 0.79100001
0.13235852 -0.22928588 0.79157144
0.13793263 -0.22869192 0.79250008
0.14211714 -0.22889525 0.79233336
0.1465162 -0.22883716 0.79300004
0.15368001 -0.22976668 0.79100001
0.24282846 -0.22799639 0.79183334
0.24707419 -0.22618899 0.79128569
-0.20725891 -0.22257948 0.7930001
-0.20236111 -0.22274876 0.79283345
-0.1973689 -0.22329876 0.7930001
-0.19258574 -0.2235505 0.7930001
-0.18756096 -0.22260709 0.79233342
-0.1825286 -0.2231106 0.79233336
-0.17748097 -0.22392812 0.79300004
-0.17446001 -0.22430573 0.79300004
-0.16766286 -0.22430573 0.79300004
-0.16162096 -0.22430573 0.79300004
-0.15784478 -0.22370155 0.79300004
-0.15255813 -0.22309735 0.79300016
-0.14764905 -0.22392812 0.79300004
-0.13632049 -0.22392812 0.79300004
-0.13254429 -0.22392811 0.79300004
-0.12839049 -0.22430573 0.79300004
-0.12189545 -0.22400366 0.79300004
-0.11700362 -0.22358839 0.79260004
-0.1123886 -0.22326764 0.79200006
-0.10781811 -0.22317398 0.79166669
-0.10260461 -0.22256017 0.79216671
-0.097288802 -0.2224818 0.79188895
-0.09271165 -0.22235738 0.79144442
-0.087931305 -0.2236584 0.7930001
-0.070237145 -0.22430573 0.79300004
-0.067216195 -0.22430573 0.79300004
-0.062684774 -0.22430573 0.7930001
-0.057146356 -0.22430573 0.7930001
-0.052111432 -0.22430573 0.79300004
-0.040027622 -0.22430573 0.79300004
-0.036606669 -0.22341098 0.79250002
-0.03283143 -0.22341098 0.79250002
0.013594287 -0.22430573 0.79300004
0.015860001 -0.22430573 0.79300004
0.24394192 -0.22430573 0.79300004
0.24816585 -0.22300519 0.79255563
0.25086004 -0.22223336 0.79100007
0.27948669 -0.22148001 0.79100001
0.28170383 -0.22204001 0.79300004
-0.21584706 -0.21645127 0.79300004
-0.21131563 -0.21765964 0.79300004
-0.20755921 -0.21737161 0.79250014
-0.2024038 -0.21750858 0.79300016
-0.19862764 -0.21901906 0.79300004
-0.19409621 -0.21977431 0.79300004
0.012053334 -0.21620668 0.79100001
0.24998383 -0.21977431 0.79300004
0.25203684 -0.21732573 0.79233336
0.28173241 -0.21789812 0.79166669
-0.21708901 -0.21255757 0.7930001
-0.21222194 -0.21222192 0.7930001
-0.20787929 -0.21241072 0.7930001
-0.20272751 -0.21222192 0.7930001
0.25403383 -0.21257287 0.79149997
0.25538 -0.21018001 0.79100001
0.28250003 -0.21470001 0.79100001
-0.21599811 -0.20844573 0.79300004
-0.21322891 -0.20869748 0.7930001
0.25451526 -0.20920096 0.79300004
0.25538 -0.2071667 0.79100007
0.25451526 -0.20089334 0.79300004
0.25664073 -0.2025784 0.79157144
0.26140669 -0.20114002 0.79100001
0.25419432 -0.19686668 0.79200006
0.25671449 -0.19747239 0.79139996
0.25654307 -0.19259565 0.79180002
0.27496669 -0.19059335 0.79100001
0.27873337 -0.19059335 0.79100001
0.25811502 -0.18736364 0.792
0.27798003 -0.18682668 0.79100001
0.25765082 -0.18194069 0.79209095
0.27346003 -0.18381333 0.79100001
0.27798003 -0.18456668 0.79100001
0.25710192 -0.17718254 0.79166669
0.25774977 -0.17275567 0.79211116
0.26190889 -0.17201112 0.79100007
0.25869849 -0.16798858 0.79240006
0.26291335 -0.16799335 0.79099995
0.26743332 -0.16799335 0.79099995
0.27263823 -0.16785638 0.79099995
0.27647334 -0.16799335 0.79100001
0.25876686 -0.16266315 0.79172724
0.26291338 -0.16292548 0.79099995
0.26743335 -0.16272002 0.79100001
0.27207893 -0.16234335 0.79100001
0.27798003 -0.16046003 0.79100007
0.28099334 -0.16046001 0.79100001
0.25868243 -0.15762319 0.79188889
0.26261202 -0.15714535 0.79100001
0.26762167 -0.15725835 0.79099995
0.27270669 -0.15744667 0.79100001
0.27779168 -0.157635 0.79099995
0.28097096 -0.15726715 0.792
0.25855199 -0.15255317 0.79190916
0.26266223 -0.15242445 0.79100001
0.26724502 -0.15273835 0.79099995
0.27303463 -0.15296923 0.79122221
0.27759823 -0.1524308 0.7927779
0.28069684 -0.15432034 0.7930001
0.25858721 -0.14794381 0.79211116
0.26273212 -0.14750779 0.79115391
0.26743335 -0.14765334 0.79100001
0.27290344 -0.14762764 0.79113346
0.27746099 -0.14702319 0.79166669
0.28019336 -0.14802667 0.79300004
0.25854319 -0.143747 0.7930001
0.2623243 -0.14247 0.79150003
0.26773429 -0.14254001 0.79188889
0.27262628 -0.14244546 0.79136366
0.27720398 -0.14253484 0.79185718
0.26244974 -0.13748771 0.79233342
0.2673341 -0.13766213 0.79159999
0.27225468 -0.13801068 0.79099995
0.2768355 -0.13775834 0.79149997
0.26297393 -0.13246877 0.79300004
0.26712355 -0.13275307 0.79200011
0.27242643 -0.13323301 0.79118186
0.27763358 -0.13257618 0.79144442
0.28170383 -0.13103381 0.79300004
0.26357812 -0.12914573 0.79300004
0.26735431 -0.12914573 0.79300004
0.2711305 -0.12839049 0.79300004
0.27695665 -0.12806682 0.7930001
0.28109965 -0.12823944 0.79300004
0.28019336 -0.12461429 0.79300004
0.27415144 -0.11857239 0.79300004
0.2832143 -0.11177525 0.79300004
-0.1798943 -0.2451724 0.79700005
-0.17303944 -0.24553202 0.79619998
-0.20518573 -0.24152859 0.79500002
-0.20253573 -0.24266429 0.79500002
-0.19781239 -0.24268173 0.79580003
-0.19255334 -0.24183241 0.796
-0.18800858 -0.24183241 0.796
-0.17717144 -0.24455716 0.79500002
-0.17490001 -0.24455716 0.79500002
-0.21578573 -0.23092858 0.79500002
0.097854294 -0.23060429 0.79650003
0.11432858 -0.23092858 0.79500002
0.11678666 -0.23129337 0.79800004
0.15067144 -0.23092858 0.79500002
0.16492002 -0.23180002 0.79800004
0.16926762 -0.23302764 0.79700005
0.18012001 -0.23332001 0.79800004
0.19458573 -0.23244287 0.79500002
0.20972858 -0.23244287 0.79500002
0.21124287 -0.23244287 0.79500002
0.22184287 -0.23395716 0.79500002
0.2276662 -0.23221922 0.7968334
0.23295158 -0.23273337 0.79600006
0.23667622 -0.23121794 0.79600006
-0.22138892 -0.22594319 0.79700011
-0.21761584 -0.22776802 0.79560006
-0.21275716 -0.2279 0.79500002
-0.20972858 -0.22790001 0.79500002
-0.16623144 -0.22543716 0.79700005
-0.084254295 -0.22543716 0.79700005
-0.077422857 -0.22543716 0.79700005
-0.073627621 -0.22543716 0.79700005
-0.047060955 -0.22543716 0.79700005
-0.011357144 -0.22638573 0.79500002
-0.0053200005 -0.22724001 0.79800004
-0.002276032 -0.22766557 0.7968334
0.0019720001 -0.22733317 0.7962001
0.0073358733 -0.22635368 0.79666674
0.011400001 -0.22572002 0.79800004
0.02274381 -0.22667049 0.796
0.053757146 -0.22638573 0.79500002
0.072685719 -0.22714287 0.79500002
0.075904772 -0.22847335 0.79700005
0.09918572 -0.2294143 0.79500002
0.10145715 -0.2294143 0.79500002
0.11395238 -0.22866383 0.79766673
0.11628 -0.22800002 0.79800004
0.23849398 -0.22938859 0.79666674
0.24140783 -0.22774993 0.79660004
-0.22543716 -0.22240096 0.79700005
-0.22209048 -0.22209091 0.7958889
-0.2173125 -0.22254574 0.79554552
-0.21289484 -0.2228065 0.79500002
-0.20972858 -0.2241143 0.79500002
-0.19700859 -0.22154002 0.79500002
-0.1923143 -0.22108573 0.79500002
-0.18774574 -0.22112288 0.79649997
-0.18265583 -0.22115603 0.79580003
-0.17756715 -0.22184527 0.79610008
-0.17237064 -0.22300082 0.79623079
-0.16770214 -0.22233768 0.79677773
-0.16294521 -0.22238435 0.79645455
-0.15756799 -0.22184587 0.79637498
-0.15086097 -0.22136287 0.796
-0.14783049 -0.22313145 0.796
-0.14246224 -0.2235432 0.79566669
-0.13721526 -0.22237366 0.796
-0.1324975 -0.22196585 0.79612505
-0.12772667 -0.22295162 0.79700005
-0.12222859 -0.22243977 0.79714292
-0.11750381 -0.22250049 0.796
-0.11162668 -0.22249399 0.79733342
-0.10778476 -0.22240096 0.79700005
-0.090100005 -0.22184287 0.79500002
-0.086586192 -0.22329953 0.79750001
-0.082371436 -0.2243562 0.79640007
-0.077520005 -0.22420001 0.79800004
-0.071826994 -0.22357146 0.79666674
-0.067507088 -0.2233237 0.79642862
-0.062934764 -0.22292559 0.79616678
-0.057831913 -0.22349668 0.79550004
-0.05224286 -0.22487144 0.79500002
-0.049214289 -0.22487144 0.79500002
-0.042660959 -0.22349942 0.79600006
-0.037440956 -0.22297469 0.79580009
-0.033314288 -0.22335716 0.79500002
-0.028014287 -0.22487144 0.79500002
-0.02347143 -0.22487144 0.79500002
0.24354765 -0.22386192 0.79500002
0.24729288 -0.22302145 0.79650003
0.25004002 -0.22116001 0.79800004
-0.22543716 -0.21936478 0.79700005
-0.222495 -0.21726212 0.79536372
-0.21857335 -0.2178162 0.79550004
-0.21336286 -0.21699715 0.79500002
-0.19717763 -0.21704733 0.79629999
-0.19271274 -0.21767066 0.79636359
-0.18769352 -0.21864705 0.79660004
-0.18316001 -0.21964002 0.79800004
-0.171 -0.21964002 0.79800004
-0.16948001 -0.21964002 0.79800004
-0.133 -0.21964002 0.79800004
-0.12996002 -0.21964002 0.79800004
0.25140142 -0.21747765 0.79750007
-0.23104002 -0.21052001 0.79800004
-0.22706066 -0.21188307 0.79677778
-0.22295907 -0.21250705 0.79520005
-0.2188143 -0.21200001 0.79500002
-0.20569049 -0.21225241 0.79500002
-0.20076905 -0.21213192 0.79550004
-0.19831239 -0.21304117 0.79720002
0.25356132 -0.21256512 0.79712498
-0.23161 -0.20729002 0.79799998
-0.22705081 -0.20730668 0.79733336
-0.22211145 -0.20762886 0.79645455
-0.21781619 -0.20682999 0.79550004
-0.21222176 -0.20698261 0.7960909
-0.20743006 -0.20797034 0.79614288
-0.20273337 -0.20769905 0.7967273
-0.19988002 -0.20824 0.79800004
0.25422001 -0.20786001 0.79800004
0.25579906 -0.20722002 0.79700011
-0.23137985 -0.20372991 0.79760009
-0.22708246 -0.20277853 0.79744446
-0.22240096 -0.20266573 0.79699999
-0.21772562 -0.20255189 0.79655552
-0.21244416 -0.20258097 0.79666674
-0.20733513 -0.20277832 0.79744446
-0.20363733 -0.20287733 0.79783338
0.25428098 -0.20266573 0.79700011
0.25579906 -0.20418382 0.79700005
-0.23058403 -0.19714402 0.79800004
-0.2271454 -0.19751716 0.79766673
-0.2225174 -0.19745533 0.79741663
-0.21784669 -0.19735239 0.79700005
-0.21256632 -0.19738358 0.79712498
-0.20761821 -0.1978073 0.79800004
-0.20444001 -0.19988002 0.79800004
0.25376627 -0.1971328 0.79742867
0.25547811 -0.19634476 0.796
-0.23078668 -0.19278669 0.79800004
-0.22717717 -0.19222666 0.79777777
-0.22246321 -0.19209304 0.7972222
-0.21778592 -0.19198553 0.79677778
-0.21262144 -0.19211923 0.79733336
-0.20900002 -0.19228002 0.79800004
0.25460002 -0.19228002 0.79800004
0.25627643 -0.19163944 0.79660004
-0.23104005 -0.18772 0.79800004
-0.22720858 -0.18769366 0.79788888
-0.2224322 -0.1875107 0.79711109
-0.21784669 -0.18748477 0.79699999
-0.21266572 -0.1876024 0.79750001
-0.20900002 -0.18772 0.79800004
0.25460002 -0.18772 0.79800004
0.25634059 -0.18774058 0.79680008
-0.23088804 -0.18255201 0.79800004
-0.22724001 -0.18240002 0.79800004
-0.22247073 -0.18222788 0.79724997
-0.218026 -0.18264943 0.79710001
-0.21259414 -0.18250611 0.79780012
-0.20900001 -0.18240002 0.79800004
0.25460002 -0.18214667 0.79800004
0.25601304 -0.18308413 0.79766673
-0.23104003 -0.17708002 0.79800004
-0.22724001 -0.17727001 0.79799998
-0.22261842 -0.17703049 0.79777777
-0.21778373 -0.17747067 0.79727268
-0.21283072 -0.17719409 0.79746151
0.25460002 -0.17784001 0.79800004
0.25595954 -0.17772762 0.79750007
-0.23210399 -0.172672 0.79799998
-0.22648004 -0.17290001 0.79800004
-0.22287002 -0.17270999 0.79799998
-0.2180597 -0.17247175 0.79777777
-0.21268806 -0.17242977 0.79758334
-0.20900001 -0.171 0.79800004
0.25634059 -0.17195773 0.79680008
-0.22572002 -0.16948001 0.79800004
-0.22249 -0.16815002 0.79799998
-0.21776174 -0.16776572 0.7978
-0.21254373 -0.16805975 0.79781818
-0.20900001 -0.16872001 0.79800004
0.25639576 -0.16764431 0.79650009
-0.22622669 -0.16390668 0.79800004
-0.22234222 -0.16323113 0.79799998
-0.21730936 -0.16279203 0.7980001
-0.21254669 -0.16390669 0.79800004
0.25639576 -0.16309288 0.79650009
-0.21698001 -0.15846001 0.79800004
0.25667146 -0.15748572 0.79500002
0.25667149 -0.15218572 0.79500002
0.28165716 -0.15218572 0.79500002
0.25717622 -0.14663336 0.79500002
0.25817209 -0.14193271 0.796
0.25865293 -0.13729145 0.79644448
0.25892466 -0.13300209 0.79650009
0.261345 -0.1319602 0.79540008
0.26878574 -0.13098572 0.79500002
0.27383339 -0.1314905 0.79500002
0.27635717 -0.13250001 0.79500002
0.28196001 -0.13452001 0.79800004
0.25859955 -0.12815985 0.79783338
0.26202196 -0.12738177 0.79614288
0.26771384 -0.12675048 0.79575002
0.27281415 -0.12713741 0.79590911
0.27708146 -0.12622239 0.796
0.28317147 -0.12720001 0.79500002
0.25916001 -0.12236001 0.79800004
0.26280493 -0.12243936 0.79700005
0.26772517 -0.12247887 0.79680002
0.2727991 -0.12200287 0.79566669
0.27777836 -0.12305202 0.79560006
0.28217676 -0.12264546 0.79627275
0.25916001 -0.1178 0.79800004
0.26220003 -0.11780001 0.79799998
0.26726788 -0.11768928 0.79725003
0.27236497 -0.11721949 0.79500002
0.27763802 -0.11765675 0.79557151
0.28170812 -0.11742525 0.79674995
0.25916001 -0.11400001 0.79800004
0.26220006 -0.11248 0.79800004
0.26733065 -0.11240078 0.79743761
0.27263215 -0.11267898 0.79569232
0.27785647 -0.11269691 0.79550004
0.28185275 -0.11285584 0.79662502
0.25916001 -0.10792001 0.79800004
0.26266229 -0.10726123 0.79772729
0.26777431 -0.10692686 0.79739994
0.27302837 -0.10782046 0.79684621
0.27760339 -0.10771319 0.79700005
0.28239608 -0.10759768 0.7969231
0.28500003 -0.10564001 0.79800004
0.25916001 -0.10184 0.79800004
0.26263222 -0.10241541 0.79763639
0.26780793 -0.1026881 0.79749995
0.27261209 -0.10251492 0.7973333
0.27703667 -0.1027262 0.79750001
0.28165603 -0.10351201 0.79800004
0.28500003 -0.10412001 0.79800004
0.25916001 -0.098800004 0.79800004
0.26214495 -0.097259372 0.79783338
0.26747799 -0.097264528 0.79787505
0.27278274 -0.097259372 0.79783332
0.27726185 -0.097072735 0.79800004
0.28203359 -0.09705057 0.79781818
0.26241717 -0.092177145 0.79800004
0.26752001 -0.091960005 0.79800004
0.27284005 -0.091959998 0.79799998
0.27740002 -0.0923943 0.79800004
0.28204978 -0.092271544 0.79777777
0.28500003 -0.093480006 0.79800004
0.26772729 -0.087538183 0.79800004
0.27284002 -0.087400004 0.79799998
0.27740002 -0.087400004 0.79799998
0.28215003 -0.087590009 0.79799998
0.28500003 -0.08664 0.79800004
0.26772729 -0.082978189 0.79800004
0.27283999 -0.082840003 0.79799998
0.27740002 -0.082840003 0.79799998
0.28239432 -0.083057143 0.79800004
0.28500003 -0.082840011 0.79800004
0.26904002 -0.079800002 0.79800004
0.27284002 -0.079800002 0.79800004
0.27740002 -0.079040006 0.79800004
0.28226402 -0.077824011 0.79799998
0.28571516 -0.077508219 0.79787499
0.27436003 -0.070680007 0.79800004
0.27588001 -0.070680007 0.79800004
0.28348002 -0.072200015 0.79800004
0.28564036 -0.072169535 0.79766673
0.27436003 -0.069160007 0.79800004
0.27588001 -0.069160007 0.79800004
0.27360004 -0.063840002 0.79800004
0.27638668 -0.064093336 0.79800004
0.28500003 0.01596 0.79800004
0.044080004 0.12236001 0.79800004
0.023560002 0.12540001 0.79800004
0.025080001 0.12540001 0.79800004
0.17949525 -0.23601715 0.80200005
0.21788116 -0.23650897 0.8016001
0.22074097 -0.23601715 0.80200005
0.11931048 -0.23175113 0.80133337
0.12174858 -0.23277715 0.80400002
0.13170287 -0.23048002 0.80400002
0.13706286 -0.23048002 0.80400002
0.15186669 -0.2309905 0.80400008
0.16829143 -0.23194224 0.80200005
0.17300846 -0.23217201 0.80228579
0.17853199 -0.23290861 0.80257148
0.18251887 -0.23269868 0.80320007
0.22411811 -0.23378414 0.80133337
0.22745943 -0.23204611 0.80200005
0.23215926 -0.23093715 0.80240005
0.23542859 -0.23085716 0.80000001
-0.05346667 -0.22532383 0.80200005
-0.0061019054 -0.22733049 0.801
-0.0026007621 -0.22646593 0.8028
0.0019052383 -0.22604525 0.80049998
0.0072433334 -0.22604525 0.80050004
0.026387814 -0.22590096 0.80079997
0.073904768 -0.22780953 0.80000001
0.075428575 -0.22780953 0.80000001
0.13366668 -0.22990668 0.80200005
0.1351943 -0.22990668 0.80200005
0.23786239 -0.22871383 0.80050004
0.24076192 -0.22780953 0.80000001
-0.18209526 -0.2201905 0.80000001
-0.17752382 -0.2201905 0.80000007
-0.17371431 -0.2201905 0.80000001
-0.16685717 -0.2201905 0.80000007
-0.16172287 -0.22046575 0.801
-0.15639335 -0.2213981 0.80300003
-0.15199734 -0.22135201 0.80200005
-0.14795621 -0.22242479 0.80257142
-0.14206478 -0.22226858 0.80200005
-0.1385943 -0.22282287 0.80400002
-0.12712269 -0.2211303 0.80120003
-0.12419049 -0.2217143 0.80000001
-0.11769858 -0.22240716 0.80250001
-0.11256 -0.22282287 0.80400008
-0.087838098 -0.2237962 0.80200005
-0.082438573 -0.22365668 0.80150002
-0.077410296 -0.22429411 0.8016001
-0.073904768 -0.22323811 0.80000001
-0.063238099 -0.2217143 0.80000007
-0.055897146 -0.2243543 0.80400002
-0.052749213 -0.22449017 0.80266666
-0.048000004 -0.22476193 0.80000007
0.0030476192 -0.22476192 0.80000001
0.0073650805 -0.22476193 0.80000007
0.24818256 -0.22199017 0.80100006
-0.19135667 -0.21651667 0.80049998
-0.18678239 -0.21804145 0.80050004
-0.17534858 -0.21976002 0.80400002
-0.17200129 -0.21939558 0.80266666
-0.16713652 -0.21903114 0.80133337
-0.16366002 -0.21948668 0.80300003
0.24931145 -0.21948668 0.80300003
0.25055543 -0.21727088 0.80159998
-0.19680993 -0.21269107 0.80159998
-0.19477144 -0.21463048 0.80200005
0.25167787 -0.21243866 0.80114293
-0.20038097 -0.2064762 0.80000001
-0.19935429 -0.20928192 0.80200005
0.25239167 -0.20756073 0.80125004
-0.23085716 -0.20190477 0.80000001
-0.20162033 -0.2026362 0.8008889
0.25297779 -0.20297609 0.80088896
-0.2064762 -0.19580954 0.80000001
-0.20437144 -0.19804493 0.80200011
0.25220838 -0.1981322 0.80200005
-0.23187304 -0.19225398 0.80000007
-0.20671102 -0.1925555 0.80145466
-0.20444573 -0.1921943 0.80400002
0.25320384 -0.19260083 0.80114293
0.25523812 -0.19276191 0.80000001
-0.20724364 -0.18739104 0.80179995
-0.20444573 -0.18913144 0.80400002
0.25351214 -0.1874343 0.80142862
0.25523812 -0.18819049 0.80000001
-0.23525144 -0.18178858 0.80200005
-0.23238097 -0.18209524 0.80000001
-0.2076924 -0.1824743 0.80250007
0.25334588 -0.18239786 0.80228579
0.25523812 -0.18361907 0.80000001
-0.23562478 -0.17767176 0.80066669
-0.23409972 -0.17767178 0.80066669
-0.22780953 -0.17600001 0.80000001
-0.21004763 -0.17873144 0.80200005
-0.20872648 -0.17722858 0.8028
0.25312912 -0.17789525 0.80244446
0.25523812 -0.17600001 0.80000001
-0.22841905 -0.17264764 0.80000001
-0.2217143 -0.17142858 0.80000001
-0.20795007 -0.17265525 0.80177784
0.25404954 -0.17276447 0.80266666
0.25523812 -0.1729524 0.80000007
-0.23213039 -0.16805758 0.8008889
-0.22817162 -0.16766039 0.8002001
-0.22476192 -0.16685715 0.80000001
-0.20811749 -0.1672578 0.80111116
0.25460002 -0.16769144 0.80400002
0.25539765 -0.1677224 0.80049998
-0.23137084 -0.16180637 0.80266666
-0.22800064 -0.16216765 0.80066675
-0.22425398 -0.16126987 0.80000007
-0.21866669 -0.16076192 0.80000001
-0.21141468 -0.16195792 0.80140013
-0.20865715 -0.16348 0.80400002
0.25498289 -0.16156572 0.80400002
0.25641668 -0.16241096 0.80250001
-0.23232405 -0.15734287 0.80155563
-0.22800064 -0.15733652 0.80066669
-0.222684 -0.15757579 0.80000013
-0.21739684 -0.15720637 0.80000007
-0.21215504 -0.15742917 0.80153853
-0.20904002 -0.15620573 0.80400002
0.25652927 -0.1576705 0.80200011
-0.23236656 -0.15232247 0.80371433
-0.22730786 -0.1523792 0.80153859
-0.22207752 -0.15264426 0.80046165
-0.21741369 -0.15257017 0.80100006
-0.21244071 -0.15235198 0.80157155
0.25656465 -0.1523252 0.80142868
-0.23201144 -0.14778286 0.80400008
-0.2274732 -0.14732397 0.80150002
-0.22190034 -0.14717017 0.80066675
-0.21720318 -0.14708805 0.80022228
-0.21233654 -0.14741525 0.80200005
-0.20904002 -0.14625144 0.80400002
0.25642541 -0.14729336 0.80133337
-0.23048002 -0.14472 0.80400002
-0.22680137 -0.14274532 0.80028588
-0.22231917 -0.1423704 0.80018193
-0.21726307 -0.14255621 0.80044454
-0.21216159 -0.14271493 0.80133343
-0.20873372 -0.14196344 0.80400002
0.25642604 -0.14271304 0.80133343
-0.22747348 -0.13714463 0.80150008
-0.22247152 -0.13765745 0.80061549
-0.21715219 -0.13770229 0.80060005
-0.21211158 -0.13766503 0.80114299
-0.20810097 -0.13694987 0.8033334
0.25643811 -0.13776219 0.8017143
-0.23124574 -0.13246858 0.80400002
-0.22708479 -0.13257667 0.80349994
-0.22195069 -0.1323442 0.80140001
-0.2175775 -0.13254234 0.80109096
-0.21214764 -0.13245648 0.80128586
-0.2083562 -0.13337843 0.8033334
0.257018 -0.13270648 0.80133337
-0.2268046 -0.12726171 0.80400002
-0.2220851 -0.12745018 0.80133343
-0.21768574 -0.12755619 0.80200005
-0.21273856 -0.12781145 0.80272728
0.25744259 -0.12745081 0.80133337
-0.2263962 -0.12302476 0.80400002
-0.22250049 -0.12233445 0.80283344
-0.21726376 -0.12224311 0.8026154
-0.21306193 -0.12266611 0.80300009
0.2577036 -0.12274358 0.80175006
-0.22263144 -0.11734573 0.80399996
-0.21759753 -0.1173669 0.80384618
-0.21302174 -0.11746057 0.80400002
0.25814551 -0.11725215 0.80075008
-0.22190402 -0.11286628 0.80400002
-0.21746288 -0.11256 0.80400002
-0.2136343 -0.11256 0.80400008
0.25820532 -0.11201736 0.80133337
-0.22205715 -0.10796572 0.80400002
-0.21776915 -0.10827201 0.80400002
-0.2136343 -0.10949715 0.80400002
0.25764212 -0.10751791 0.80180007
0.25852764 -0.10282205 0.80142868
0.27961907 -0.10133334 0.80000001
0.28304765 -0.1017143 0.80000001
0.25967011 -0.096747443 0.80240005
0.27961907 -0.099809527 0.80000001
0.28114289 -0.099809527 0.80000001
0.25969335 -0.092420965 0.80200005
0.26209527 -0.091428578 0.80000001
0.27809525 -0.090666674 0.80000001
0.28419051 -0.092190482 0.80000001
0.28665572 -0.092248097 0.80049998
0.25969335 -0.087838113 0.80200005
0.26285714 -0.087619051 0.80000007
0.26590478 -0.086095244 0.80000001
0.28114289 -0.086095244 0.80000001
0.28696954 -0.088707946 0.80066669
0.25957716 -0.084994294 0.80400002
0.26237991 -0.082374886 0.80087513
0.26641273 -0.080507949 0.80000007
0.28114289 -0.082285717 0.80000001
0.26281333 -0.077182107 0.80080014
0.26742861 -0.07695239 0.80000007
0.27200001 -0.07695239 0.80000007
0.27707937 -0.076444454 0.80000007
0.28114289 -0.076190479 0.80000001
0.26307544 -0.072372578 0.8016001
0.26742858 -0.072380953 0.80000007
0.27200001 -0.07238096 0.80000007
0.27763811 -0.072685719 0.80000013
0.28190479 -0.07238096 0.80000007
0.26253051 -0.06792286 0.80133343
0.26742861 -0.067809537 0.80000007
0.27200001 -0.06780953 0.80000007
0.27763811 -0.067504771 0.80000013
0.28266671 -0.067809537 0.80000007
0.28609523 -0.067428574 0.80000001
0.26259509 -0.062712133 0.80106682
0.26742861 -0.062476199 0.80000013
0.27186149 -0.062406931 0.80000013
0.27758732 -0.061841272 0.80000013
0.28284433 -0.062514767 0.80050009
0.2867341 -0.06308838 0.80200005
0.26329356 -0.057237677 0.80133337
0.26742861 -0.057142861 0.80000007
0.27200001 -0.057142861 0.80000007
0.27733335 -0.057142861 0.80000013
0.28237528 -0.057236195 0.80133337
0.28561145 -0.058960006 0.80400002
0.26307675 -0.052703407 0.80200011
0.26699466 -0.052595325 0.80036372
0.27200004 -0.052571431 0.80000007
0.27731517 -0.052745804 0.80054551
0.28257018 -0.052790485 0.8033334
0.26291382 -0.047386196 0.80250001
0.26688734 -0.048040323 0.80066675
0.27200001 -0.048 0.80000007
0.2772395 -0.047903728 0.80072737
0.28259364 -0.047181305 0.80254549
0.26317009 -0.042460416 0.80228579
0.26730788 -0.042590864 0.80146682
0.27251002 -0.042745244 0.80150008
0.27704477 -0.042719051 0.80100006
0.28237399 -0.041975241 0.80133337
0.28666669 -0.042044453 0.80266666
0.26289037 -0.037711024 0.80342853
0.26733243 -0.037425719 0.80200005
0.27267998 -0.037426669 0.80200005
0.27726287 -0.037426669 0.80200005
0.28217125 -0.037785608 0.80244446
0.28663242 -0.038030483 0.80400008
0.26329625 -0.032912701 0.80366671
0.26722097 -0.032831434 0.80166674
0.27260488 -0.032835141 0.80177784
0.27726287 -0.032843813 0.80200005
0.28101715 -0.032925718 0.80400008
0.28714287 -0.034457143 0.80400002
0.26417145 -0.027565716 0.80400002
0.26741594 -0.02750548 0.80225003
0.27262369 -0.027490955 0.80183339
0.2777251 -0.027542859 0.8033334
0.28197429 -0.027374286 0.80399996
0.28714287 -0.028331431 0.80400002
0.26417145 -0.023737144 0.80400002
0.26744762 -0.022520212 0.80311114
0.27249405 -0.022040347 0.80309099
0.27787793 -0.022199156 0.80377775
0.28235716 -0.022397144 0.80399996
0.28599429 -0.022588573 0.80400002
0.26815316 -0.017917715 0.80400002
0.27259433 -0.017611431 0.80400002
0.27795431 -0.018530287 0.80400002
0.28162974 -0.017917715 0.80400002
0.28561145 -0.019142859 0.80400002
0.26876572 -0.013017144 0.80400002
0.27131814 -0.011996191 0.80400008
0.27872002 -0.011485715 0.80400002
0.28254858 -0.011485715 0.80400002
0.26767185 -0.0077665322 0.80400002
0.27221146 -0.0070190486 0.80400002
0.27809447 -0.006665851 0.80314291
0.28157082 -0.006370794 0.80266666
0.28561145 -0.0053600003 0.80400002
0.26417145 -0.002297143 0.80400002
0.26761717 -0.0019142858 0.80400002
0.2723667 -0.0022958734 0.80333328
0.2774286 -0.0022918098 0.80159998
0.28281787 -0.0022914289 0.80200005
0.28619051 -0.0022895243 0.80133337
0.26823211 0.0025145584 0.80371433
0.27230826 0.0021534201 0.80254555
0.27726284 0.0022914289 0.80200005
0.28255033 0.0022906351 0.80183339
0.28675315 0.0019836193 0.80120003
0.26779556 0.0077993665 0.80293334
0.27228338 0.007625239 0.8008334
0.27726352 0.0076377778 0.80200005
0.28296071 0.0076483344 0.80299997
0.28625003 0.0076319054 0.80150002
0.26819086 0.012851429 0.80320007
0.27268001 0.012984763 0.80200005
0.27734011 0.012988361 0.80222225
0.28272384 0.012989844 0.80233347
0.28571433 0.012952383 0.80000007
0.26891512 0.01737388 0.80314291
0.27290586 0.01758307 0.80266666
0.27734008 0.017572911 0.80222225
0.28237239 0.017553652 0.80133343
0.2857143 0.018285714 0.80000001
0.26876572 0.021440001 0.80400002
0.2725943 0.022205716 0.80400002
0.27787748 0.022199156 0.80377775
0.28266528 0.02215508 0.8021667
0.28595242 0.022113651 0.80066669
0.27290058 0.027106289 0.80400002
0.27795434 0.027565716 0.80400002
0.28291988 0.027133776 0.8033846
0.28690416 0.027034286 0.8033334
0.27412573 0.034457143 0.80400002
0.27744386 0.032925718 0.80400008
0.27305374 0.036907431 0.80400002
0.27642289 0.037520003 0.80400002
0.28714287 0.039051432 0.80400002
0.27489144 0.042114288 0.80400008
0.27642289 0.042114288 0.80400002
0.28714287 0.041348573 0.80400002
0.27489144 0.045177147 0.80400002
0.09394858 0.09394858 0.80200005
0.096000008 0.093714289 0.80000001
0.10133334 0.092190482 0.80000001
0.077239051 0.098654293 0.80300003
0.080000006 0.09828572 0.80000001
0.093948588 0.097003818 0.80200005
0.097212195 0.096756198 0.80120009
0.052834291 0.10490286 0.80400002
0.074274294 0.10490286 0.80400002
0.077441394 0.10262893 0.80363637
0.082282186 0.10271457 0.80314285
0.087994568 0.10373498 0.80342859
0.091885716 0.10413714 0.80400002
0.10949715 0.10337143 0.80400002
0.11409143 0.10490286 0.80400002
0.11715429 0.10490286 0.80400002
0.12328001 0.1042903 0.80400002
0.1278743 0.10413715 0.80400002
0.13263975 0.10377171 0.80371433
0.13675658 0.1042903 0.80400002
0.15620573 0.10490286 0.80400002
0.047474287 0.10758286 0.80399996
0.052819688 0.10793588 0.80377775
0.056509722 0.10827201 0.80400002
0.073845245 0.10789953 0.80350006
0.077240959 0.10706763 0.80299997
0.082748316 0.10701498 0.80342853
0.088494703 0.10774696 0.80400002
0.092038862 0.10765944 0.80400002
0.10949715 0.10796572 0.80400002
0.11281525 0.10771048 0.80400002
0.1171543 0.10815715 0.80399996
0.12218613 0.10774696 0.80400002
0.12902287 0.10758287 0.80400002
0.13243155 0.1079363 0.80377775
0.13698711 0.10790645 0.80355555
0.1412743 0.10720001 0.80400002
0.15697144 0.1064343 0.80400008
0.052068576 0.11102858 0.80400002
0.057939053 0.11307048 0.80400008
0.074274294 0.11256 0.80400008
0.075805716 0.11179429 0.80400002
0.097245723 0.11409143 0.80400002
0.11562286 0.11102858 0.80400002
0.12021715 0.11256 0.80400002
0.13246858 0.11102858 0.80400002
0.13706286 0.11141144 0.80400002
0.14012572 0.11102858 0.80400002
0.043099053 0.11909652 0.8033334
0.045177147 0.11868572 0.80400002
0.051302861 0.11562286 0.80400002
0.058041152 0.1171543 0.80400002
0.061257146 0.11868572 0.80400002
0.066106677 0.11817525 0.80400008
0.073508576 0.11638857 0.80400002
0.075805716 0.11638857 0.80400002
0.083359055 0.11930192 0.80299997
0.097628579 0.11715429 0.80400002
0.11715429 0.11792001 0.80400002
0.12098287 0.1171543 0.80400002
0.15237716 0.11562286 0.80400002
0.023619048 0.12419049 0.80000001
0.026768573 0.1246562 0.80300003
0.042753972 0.12190255 0.80166668
0.045942858 0.12098287 0.80400002
0.053255878 0.12409398 0.80266666
0.058140241 0.12239786 0.80325001
0.061686099 0.12275849 0.80360001
0.06610667 0.12302478 0.80400002
0.074274294 0.12098287 0.80400002
0.077240959 0.12083144 0.80299997
0.082679525 0.12144381 0.80199993
0.087729774 0.12174881 0.80274999
0.091829054 0.12243763 0.80350006
0.11715429 0.12174858 0.80400002
0.12208889 0.12174858 0.80399996
0.1493143 0.12021715 0.80400002
0.15084572 0.12021715 0.80400002
0.19985144 0.12021715 0.80400002
0.20138288 0.12021715 0.80400002
0.022150477 0.12602858 0.80200005
0.031238098 0.12571429 0.80000001
0.19622858 -0.23624383 0.80800003
0.21800382 -0.23565906 0.80600005
0.22221017 -0.23604891 0.80733341
-0.008464762 -0.23008764 0.80800003
0.11912858 -0.2305705 0.80700004
0.12220287 -0.23082638 0.8070001
0.12748447 -0.23367874 0.80800003
0.13158858 -0.23316573 0.80800003
0.13893905 -0.23105335 0.80600005
0.15429144 -0.23258859 0.80600005
0.15621334 -0.23316573 0.80800003
0.16390859 -0.23470478 0.80800003
0.16544762 -0.23470478 0.80800003
0.17732002 -0.23412383 0.80600005
0.21392763 -0.23393525 0.80800003
0.21739051 -0.23432001 0.80800003
0.22316192 -0.23470478 0.80800003
0.22777906 -0.2323962 0.80800003
0.23302048 -0.23071383 0.8075
0.23642668 -0.23105335 0.80600005
-0.016929526 -0.22854859 0.80800003
-0.012296191 -0.22749621 0.8070001
-0.0073035713 -0.22699024 0.80725008
0.023057144 -0.22749621 0.80700004
0.077529527 -0.22951812 0.80600005
0.23642668 -0.22951812 0.80600005
-0.1849962 -0.22030668 0.80600005
-0.17852953 -0.22085334 0.80800003
-0.16196764 -0.22030668 0.80600005
-0.15198858 -0.22030668 0.80600005
-0.14815049 -0.22081843 0.80600011
-0.12512191 -0.22184192 0.80600005
-0.12358668 -0.22184192 0.80600005
-0.11591049 -0.22491239 0.80600005
-0.090803817 -0.22393145 0.80800003
-0.086740963 -0.22337715 0.80600011
