# .PCD v0.7 - Point Cloud Data file format
VERSION 0.7
FIELDS x y z
SIZE 4 4 4
TYPE F F F
COUNT 1 1 1
WIDTH 158
HEIGHT 1
VIEWPOINT 0 0 0 1 0 0 0
POINTS 158
DATA ascii
-0.22197802 0.20653814 1.0848137
-0.21527179 0.20168097 1.0946503
-0.20874895 0.20133483 1.0955704
-0.20656414 0.20136675 1.0955867
-0.20437928 0.20139867 1.0956029
-0.18905397 0.20206407 1.0948443
-0.1803147 0.2021918 1.094909
-0.17812987 0.20222372 1.0949252
-0.17594506 0.20225567 1.0949413
-0.17376025 0.20228758 1.0949575
-0.099729255 0.19983782 1.1024805
-0.095359623 0.19990169 1.1025128
-0.08658874 0.20047131 1.1017058
-0.051631629 0.20098215 1.1019645
-0.025382198 0.20180722 1.1012868
-0.020985469 0.20297158 1.0991465
0.10792338 0.20419672 1.1014012
0.1101082 0.20422868 1.1014173
0.12983479 0.20539987 1.0998194
0.13201961 0.20543179 1.0998356
0.13420443 0.20546368 1.0998518
0.13638924 0.20549564 1.0998679
0.14946656 0.20524529 1.1008366
0.15383619 0.20530915 1.1008689
0.18657687 0.20534617 1.1019831
0.18876171 0.20537809 1.1019993
0.1909465 0.20541003 1.1020154
0.19313133 0.20544195 1.1020316
0.19531614 0.20547387 1.1020478
0.19750096 0.20550582 1.1020639
0.19968578 0.20553774 1.1020801
0.20187061 0.20556962 1.1020963
0.30702639 0.21107943 1.0950271
0.31133282 0.21025944 1.0968028
0.31567085 0.2098814 1.0977068
0.31785566 0.20991331 1.097723
0.32004046 0.20994526 1.0977391
0.3222253 0.20997718 1.0977553
0.32441011 0.21000908 1.0977715
0.32659495 0.21004105 1.0977876
0.34625828 0.21032837 1.0979332
0.34844315 0.21036032 1.0979493
0.37029135 0.21067961 1.0981109
0.39213949 0.21099889 1.0982726
0.39432436 0.21103081 1.0982888
0.39650917 0.2110627 1.098305
0.40964967 0.21169621 1.0975302
0.41183448 0.21172813 1.0975465
0.41401929 0.21176007 1.0975626
0.41620415 0.21179199 1.0975788
0.43365109 0.21160549 1.0985798
0.45337766 0.21277669 1.0969819
0.45217168 0.2147288 1.0930825
0.45054215 0.21703139 1.0884756
0.4493041 0.21853514 1.0854607
0.43806183 0.23067929 1.0610671
0.41738611 0.24664286 1.0287877
0.40295118 0.26129174 0.9993313
0.40176642 0.26312435 0.99566877
0.38853395 0.27329859 0.97509378
0.38216215 0.28144076 0.95878112
0.3801645 0.28389481 0.95386171
0.36992967 0.29431182 0.93291599
0.36205173 0.30038714 0.92063093
0.35049957 0.31033164 0.90057069
0.34476465 0.31428954 0.89254546
0.34026068 0.31725663 0.88652188
0.33857805 0.31829825 0.88440353
0.32175201 0.32714331 0.86632353
0.29630053 0.34774771 0.82470489
0.29398155 0.35311782 0.81401432
0.24721374 0.35085416 0.81678933
0.23748353 0.35071197 0.81671733
0.23424013 0.35066459 0.81669331
0.23099673 0.3506172 0.81666929
0.22937502 0.35059351 0.8166573
0.21153632 0.3503328 0.81652534
0.20991461 0.3503091 0.81651336
0.20667122 0.35026169 0.81648934
0.20504951 0.350238 0.81647736
0.20342781 0.3502143 0.81646532
0.18324935 0.35086757 0.81444335
0.17400977 0.35010046 0.8156234
0.16288531 0.34962183 0.81616539
0.16126359 0.34959814 0.81615335
0.13207297 0.34917155 0.8159374
0.13045126 0.34914786 0.81592536
0.12882957 0.34912416 0.81591338
0.12720788 0.34910047 0.8159014
0.12558617 0.34907675 0.81588942
0.10936917 0.34883976 0.81576943
0.10288235 0.34874499 0.81572139
0.093024231 0.34891698 0.8150242
0.089784808 0.34886962 0.81500024
0.083305962 0.34877497 0.81495231
0.081686258 0.34875128 0.81494033
0.080066539 0.34872761 0.81492835
0.078446828 0.34870395 0.81491637
0.076827124 0.34868029 0.81490433
0.075207412 0.34865662 0.81489235
0.073587693 0.34863293 0.81488037
0.06224972 0.34846726 0.81479651
0.060630009 0.34844357 0.81478453
0.059010297 0.3484199 0.81477255
0.057390586 0.34839624 0.81476057
0.055770874 0.34837258 0.81474859
0.054151163 0.34834889 0.8147366
0.052531458 0.34832522 0.81472462
0.046052605 0.34823054 0.81467664
0.044432897 0.34820688 0.81466466
0.042813186 0.34818321 0.81465268
0.037954055 0.3481122 0.81461674
0.03633434 0.34808853 0.81460476
0.02006048 0.34848279 0.81323594
0.01844475 0.34845918 0.81322396
0.016829018 0.34843555 0.81321204
0.015213285 0.34841198 0.81320006
-0.00096905231 0.34880757 0.81183195
-0.0025807992 0.348784 0.81181997
-0.020332806 0.34789249 0.81293708
-0.047709852 0.3481245 0.81148612
-0.050933361 0.34807739 0.81146222
-0.054156855 0.34803027 0.81143844
-0.070420474 0.34716055 0.81256646
-0.072036207 0.34713691 0.81255454
-0.07365194 0.34711331 0.81254256
-0.075267673 0.34708971 0.81253064
-0.076883405 0.3470661 0.81251866
-0.078499138 0.3470425 0.81250668
-0.080114871 0.34701887 0.81249475
-0.081730604 0.34699526 0.81248277
-0.083346322 0.34697163 0.81247085
-0.084962055 0.34694803 0.81245887
-0.11404523 0.34652302 0.8122437
-0.11566097 0.34649941 0.81223172
-0.1172767 0.34647581 0.8122198
-0.11889242 0.34645221 0.81220782
-0.12858681 0.3463105 0.81213611
-0.13020255 0.34628692 0.81212413
-0.13181828 0.34626329 0.81211221
-0.13828121 0.34616885 0.81206441
-0.14151268 0.34612164 0.81204045
-0.1431284 0.34609801 0.81202853
-0.14474413 0.3460744 0.81201655
-0.15928571 0.34586191 0.81190896
-0.170203 0.34633443 0.81057978
-0.17181475 0.34631085 0.81056786
-0.17342649 0.34628731 0.81055593
-0.17503823 0.34626377 0.81054401
-0.19231896 0.34664336 0.80916768
-0.2095121 0.34702417 0.80779207
-0.21269019 0.33898273 0.8235594
-0.21701153 0.3327136 0.83578485
-0.22212817 0.32151687 0.857714
-0.23630552 0.29348639 0.91256285
-0.22451405 0.25461832 0.98975867
-0.22108977 0.23358119 1.0314332
-0.22486056 0.21568258 1.066648
