# .PCD v0.7 - Point Cloud Data file format
VERSION 0.7
FIELDS x y z rgb normal_x normal_y normal_z curvature
SIZE 4 4 4 4 4 4 4 4
TYPE F F F F F F F F
COUNT 1 1 1 1 1 1 1 1
WIDTH 578
HEIGHT 1
VIEWPOINT 0 0 0 1 0 0 0
POINTS 578
DATA ascii
0.03268908 0.13657862 0.73443919 0 0.067551263 0.67223293 -0.73725146 0.0060953102
0.24397917 0.11079574 0.69458944 0 -0.92017227 0.047776435 -0.38858765 0.013367696
-0.06532909 0.15299284 0.74379551 0 0.1834968 0.34941858 -0.91882288 0.049943741
-0.060942024 0.1524511 0.74299967 0 0.16329171 0.38314819 -0.9091388 0.047020942
-0.055763721 0.1529029 0.74313992 0 0.1513947 0.4024609 -0.90283155 0.04358606
-0.050614312 0.15263075 0.74256563 0 0.15181156 0.39712843 -0.90512013 0.046228472
-0.045562699 0.15091556 0.74056953 0 0.1475793 0.40842375 -0.90078324 0.044304557
-0.040469162 0.14992279 0.73928553 0 0.14183667 0.42767438 -0.89273566 0.038930789
-0.035350934 0.14929074 0.73835701 0 0.1488266 0.43380052 -0.8886326 0.038836196
-0.030963898 0.14874893 0.73756111 0 0.16055739 0.44662997 -0.88019484 0.037265982
-0.025691129 0.14955288 0.73804414 0 0.18094586 0.46745265 -0.86530143 0.034478631
-0.021264687 0.14924872 0.73748106 0 0.1876761 0.48032662 -0.8567754 0.033031035
-0.01583305 0.14694422 0.73698926 0 0.16974138 0.52454156 -0.83429247 0.024466567
-0.010945179 0.1454109 0.73729336 0 0.16088204 0.58633411 -0.7939328 0.010428372
-0.0064695776 0.14542097 0.73704416 0 0.15412821 0.58552653 -0.79586631 0.0090834079
-0.0012729913 0.14446944 0.73685455 0 0.12435827 0.61958593 -0.775015 0.0036589375
0.0036243349 0.14398026 0.73562604 0 0.10239433 0.62770051 -0.77169138 0.0043671043
0.0073119998 0.14331931 0.73556167 0 0.10274375 0.62731189 -0.77196079 0.0035510394
0.24358784 0.11454898 0.69108433 0 -0.94228029 -0.0044414946 -0.33479556 0.0030260391
-0.069615304 0.15640378 0.74260449 0 0.20388751 0.17571031 -0.96309698 0.057051275
-0.06538704 0.15645444 0.74299979 0 0.2098794 0.21202184 -0.95446181 0.062395893
-0.060255319 0.1558612 0.7421087 0 0.19665334 0.26663569 -0.9435215 0.05848445
-0.055110082 0.15550989 0.74145412 0 0.17095913 0.31351024 -0.93406868 0.054661285
-0.050680503 0.15544957 0.74112868 0 0.17673337 0.31462228 -0.93261886 0.060968135
-0.04583101 0.15456945 0.740394 0 0.15185156 0.3604646 -0.92032945 0.055099327
-0.040402383 0.15335578 0.7395069 0 0.16304621 0.37154743 -0.91398495 0.051011022
-0.036001384 0.15281224 0.7387085 0 0.15585761 0.39035395 -0.90737665 0.047974791
-0.03103669 0.15245062 0.737423 0 0.16687486 0.38828388 -0.90630484 0.050727673
-0.025693789 0.15190375 0.73719776 0 0.19434284 0.40528831 -0.89329296 0.047228605
-0.022259742 0.15129936 0.73674881 0 0.18438578 0.42138457 -0.88793981 0.041941389
-0.016859569 0.15027177 0.7361173 0 0.18944572 0.4649781 -0.86481535 0.03459334
0.24315543 0.11839092 0.68706584 0 -0.95107281 -0.006164948 -0.30890524 0.0018843391
-0.069966197 0.15944475 0.73991013 0 0.21514037 -0.009614611 -0.9765358 0.063055985
-0.065541089 0.15987742 0.74005812 0 0.23171151 0.031500272 -0.97227442 0.063933991
-0.060409844 0.15924376 0.73912728 0 0.23784302 0.048822265 -0.97007585 0.064615466
-0.055251881 0.15909606 0.73866725 0 0.22052467 0.063151464 -0.97333479 0.06929899
-0.050640598 0.15908086 0.73776972 0 0.19795431 0.10241248 -0.97484666 0.075375997
-0.046378002 0.1571632 0.73833919 0 0.18563578 0.21148859 -0.95958954 0.066449843
0.24170513 0.12168986 0.68408066 0 -0.95432436 -0.0068807304 -0.29869324 0.0018272006
-0.069903642 0.16229481 0.73700494 0 0.24094915 -0.17424643 -0.95476794 0.053721536
-0.065753713 0.16294545 0.73573875 0 0.24292181 -0.2093237 -0.94719195 0.050356042
-0.060925946 0.16201138 0.73557681 0 0.24189162 -0.16152167 -0.95676494 0.058051959
-0.055606544 0.16178364 0.734456 0 0.24581078 -0.1631889 -0.95548236 0.059276331
-0.051036268 0.16236079 0.73424876 0 0.23935959 -0.1514082 -0.95905298 0.063641407
-0.04593806 0.16208613 0.733455 0 0.22598565 -0.12541617 -0.96602345 0.07035622
-0.04079935 0.16242546 0.73158288 0 0.22718312 -0.15820044 -0.96091646 0.060396794
-0.037383057 0.16218388 0.73078907 0 0.22484839 -0.16464368 -0.96038312 0.058908526
0.24204428 0.12569058 0.68027496 0 -0.95750523 -0.011163834 -0.28819972 0.0015049021
-0.05421415 0.1634773 0.73033428 0 0.24877749 -0.2996445 -0.92104447 0.041384775
-0.05107893 0.16449702 0.72962648 0 0.23592804 -0.32381645 -0.91623193 0.042014048
-0.046113387 0.16516656 0.72934955 0 0.23812826 -0.32201898 -0.91629618 0.039501574
-0.041009426 0.16416371 0.72807223 0 0.22281326 -0.30989647 -0.92429346 0.039898463
-0.036577441 0.16402966 0.72765923 0 0.23208117 -0.29193553 -0.92785352 0.04495953
-0.031927012 0.16463196 0.72654897 0 0.24779095 -0.3061496 -0.91916931 0.043423906
-0.027774446 0.16460401 0.72556454 0 0.26631141 -0.27900782 -0.9226228 0.048941296
0.24318995 0.12922239 0.67665982 0 -0.95846087 -0.019419391 -0.28456181 0.001826295
-0.045954376 0.1666953 0.72506124 0 0.2329755 -0.42917064 -0.8726598 0.016628303
-0.041459069 0.16590577 0.72415584 0 0.22646865 -0.41712224 -0.88018239 0.019975496
-0.035868004 0.1648047 0.72353792 0 0.23256548 -0.38110054 -0.89480478 0.027848119
-0.031385884 0.16550148 0.72294003 0 0.24248876 -0.36908415 -0.89720458 0.02944212
-0.026480183 0.16594273 0.72261941 0 0.28523654 -0.37230086 -0.88319427 0.029929133
-0.022245623 0.16628742 0.72207451 0 0.30287024 -0.36854601 -0.87888765 0.03129942
-0.018366106 0.16614723 0.72124672 0 0.30656871 -0.35197118 -0.88438225 0.033675037
0.24321915 0.13247049 0.67353565 0 -0.95920444 -0.029318366 -0.28118908 0.0019678336
0.24535502 0.13079375 0.67182595 0 -0.95906287 -0.030910647 -0.28150144 0.0018651102
-0.025790796 0.16679394 0.71858847 0 0.28858173 -0.46102783 -0.83915079 0.016844248
-0.022304341 0.16808438 0.71819085 0 0.30118278 -0.48125628 -0.82321405 0.011677431
-0.017629921 0.16909713 0.71711171 0 0.31331599 -0.50634867 -0.80339539 0.0070783705
-0.013468109 0.17041147 0.71565831 0 0.30548865 -0.52274042 -0.79587638 0.0048846994
0.24281816 0.13657433 0.67020857 0 -0.95930701 -0.037946526 -0.27980372 0.0017797857
-0.016274318 0.17114371 0.71274805 0 0.30489573 -0.53875053 -0.78535759 0.004045296
-0.012320019 0.17237937 0.71305817 0 0.30938634 -0.53445578 -0.78653479 0.0028775984
-0.0080285147 0.172553 0.71195602 0 0.29894948 -0.54097313 -0.78611523 0.0030186535
-0.0048203692 0.1725896 0.71095622 0 0.29035023 -0.54021782 -0.78984898 0.0020613703
0.24149568 0.13949245 0.66636747 0 -0.95933193 -0.054625962 -0.27694449 0.0021730612
-0.01542075 0.17269939 0.70977092 0 0.30462518 -0.54059792 -0.78419226 0.0024624078
-0.012270659 0.1735149 0.70884955 0 0.30248731 -0.5420509 -0.78401673 0.0020831488
-0.0079518482 0.17446244 0.70882595 0 0.29839656 -0.54357845 -0.78452659 0.0027788333
-0.0029965416 0.17414147 0.70800531 0 0.27254328 -0.55186397 -0.78814101 0.0026327558
0.0025472865 0.17369288 0.70714331 0 0.25242341 -0.55517256 -0.79250604 0.0031216431
0.0052953064 0.17458647 0.70598787 0 0.24096271 -0.5591709 -0.79326218 0.0030237937
0.24046601 0.14357334 0.66356742 0 -0.96002024 -0.068196699 -0.2714963 0.0020399056
-0.0085420981 0.17582059 0.7052592 0 0.2999922 -0.55135465 -0.77846807 0.0035670102
-0.0029174685 0.17527759 0.70383978 0 0.26487523 -0.56358552 -0.78244001 0.004036203
0.0020489022 0.1753847 0.70218605 0 0.2502152 -0.56827927 -0.78386921 0.0038496153
0.0065419599 0.17656171 0.70264024 0 0.23717055 -0.56458861 -0.79056299 0.0024568923
0.01124467 0.17617548 0.70112526 0 0.22592884 -0.56510603 -0.79348046 0.0026955383
0.016782552 0.17723972 0.69949967 0 0.2316881 -0.56842899 -0.78943598 0.0022593371
0.01976148 0.17712808 0.69918585 0 0.23067147 -0.5707314 -0.78807133 0.0024627009
0.23997535 0.14710778 0.66006643 0 -0.95834893 -0.079704225 -0.27425259 0.0022208777
0.0064141601 0.17797941 0.69811052 0 0.2354766 -0.58044648 -0.77950794 0.0028730857
0.011613466 0.17717564 0.69732332 0 0.22577243 -0.57753259 -0.78452724 0.0024738773
0.01675614 0.17731833 0.69677734 0 0.22829515 -0.57751995 -0.78380615 0.0026504791
0.020683594 0.17862326 0.69604349 0 0.22911333 -0.57864547 -0.7827366 0.0027031857
0.02617228 0.17938924 0.69472063 0 0.23145899 -0.58356971 -0.77837867 0.0036847824
0.031345084 0.17894363 0.69395119 0 0.24137126 -0.58140182 -0.77698898 0.0039070463
0.23837651 0.15229434 0.65743679 0 -0.95900351 -0.071987741 -0.27409858 0.0018027388
0.23943077 0.15139276 0.65656817 0 -0.9594512 -0.069718853 -0.27311662 0.0018602059
0.021656543 0.17977512 0.69274324 0 0.22711182 -0.58998436 -0.77481526 0.0032633995
0.026094139 0.17993075 0.69189095 0 0.23016724 -0.59311408 -0.77151722 0.0032296008
0.031171963 0.18078393 0.6915949 0 0.2430578 -0.59107602 -0.76912421 0.0033805238
0.035373673 0.18069762 0.69064093 0 0.24092333 -0.59142119 -0.7695303 0.0030792069
0.038551524 0.18075871 0.69003284 0 0.23658042 -0.58536458 -0.77548558 0.002189141
0.23816343 0.15664876 0.65329784 0 -0.95853817 -0.056420866 -0.27932286 0.0019349951
0.2395146 0.15421957 0.65267694 0 -0.95896846 -0.060876612 -0.27689999 0.0021520616
0.031186789 0.18193448 0.68731987 0 0.24243914 -0.60002124 -0.76236337 0.0033353092
0.035345815 0.18316609 0.68740892 0 0.24064003 -0.59708428 -0.76523376 0.0032690959
0.040445551 0.1833896 0.6857391 0 0.23984061 -0.59958899 -0.76352435 0.0034871318
0.045086831 0.18357784 0.68439913 0 0.25659311 -0.59683251 -0.7602309 0.0035060756
0.050055206 0.1842072 0.68324602 0 0.25903881 -0.59310317 -0.76231712 0.0032860064
0.055192962 0.18357271 0.68231398 0 0.25989005 -0.59069961 -0.76389211 0.0030736728
0.059596762 0.18302888 0.68151504 0 0.26603377 -0.58046418 -0.76960218 0.0030686955
0.23731746 0.15942848 0.65015811 0 -0.95773023 -0.046203259 -0.28393322 0.0020203849
0.23888357 0.15718341 0.64877343 0 -0.95738035 -0.047551807 -0.28488889 0.002352709
0.040708512 0.18409222 0.68190074 0 0.24627706 -0.6070407 -0.75554568 0.0032557964
0.045434549 0.18425328 0.68089342 0 0.25752917 -0.60374832 -0.75443143 0.0032961692
0.049629182 0.18431336 0.68042773 0 0.26161113 -0.60025847 -0.75581038 0.0033843829
0.055063099 0.18465447 0.67949909 0 0.26585755 -0.59294808 -0.76008713 0.0037078757
0.059744269 0.18510467 0.67906088 0 0.2727685 -0.58789212 -0.76156425 0.003499856
0.2369727 0.16302651 0.64702582 0 -0.95759279 -0.043273874 -0.28485677 0.0022556703
0.23882265 0.16101873 0.64518446 0 -0.9565776 -0.045623202 -0.28788504 0.0022326887
0.055172771 0.18553972 0.67615539 0 0.26850724 -0.59880465 -0.75454408 0.0037090636
0.060168356 0.18629849 0.67510641 0 0.27397218 -0.59660095 -0.75432521 0.0038437434
0.064134404 0.1874215 0.67484462 0 0.27968886 -0.59279901 -0.75522405 0.0033951029
0.068506956 0.18782979 0.67391819 0 0.27442446 -0.58692354 -0.76171643 0.0025871641
0.23768388 0.16644627 0.64398515 0 -0.95766646 -0.043017622 -0.28464815 0.0020839183
0.23889811 0.16511238 0.64277458 0 -0.95736814 -0.042007059 -0.28580013 0.0021425935
0.06083639 0.188613 0.67148644 0 0.27917314 -0.60289192 -0.74738455 0.0027960718
0.063734546 0.18879408 0.6704405 0 0.28684333 -0.59359574 -0.75190753 0.0032809773
0.069212228 0.18907613 0.66994369 0 0.27804548 -0.58256614 -0.76374573 0.0017522891
0.074118957 0.18942338 0.66890889 0 0.26379183 -0.5877915 -0.76479733 0.0029403493
0.078907639 0.19092339 0.66808987 0 0.2455285 -0.58875573 -0.77011842 0.0026658154
0.083284795 0.19092381 0.66677356 0 0.23459041 -0.59052992 -0.77216685 0.0028949301
0.2374974 0.17025638 0.64036357 0 -0.95623606 -0.04694631 -0.28880557 0.0021856534
0.23866422 0.16932398 0.63892198 0 -0.95519543 -0.044940788 -0.29254398 0.0020951796
0.073811755 0.19078332 0.66549098 0 0.25795457 -0.60012078 -0.75717545 0.0023206817
0.078656882 0.19085318 0.66467804 0 0.24670267 -0.59860098 -0.76211196 0.0031002925
0.083783731 0.19121194 0.66350162 0 0.23235434 -0.59317076 -0.7708177 0.0028381264
0.088828012 0.1916039 0.66302884 0 0.24994169 -0.58943456 -0.76817709 0.0027610934
0.09314999 0.19160509 0.66243941 0 0.26789644 -0.58881581 -0.7625795 0.0030621863
0.097804263 0.19237685 0.66100633 0 0.27639574 -0.58732647 -0.76069248 0.0023078884
0.2373109 0.17406648 0.636742 0 -0.95534831 -0.049585801 -0.29129168 0.0020275081
0.23830642 0.17261535 0.63499945 0 -0.9530164 -0.049770854 -0.29880214 0.0017879123
0.085351318 0.19259197 0.66027617 0 0.2440484 -0.5935998 -0.76686352 0.0035614388
0.088547245 0.19262844 0.65928024 0 0.24816158 -0.59408581 -0.76516527 0.003420305
0.092971787 0.1931963 0.6584686 0 0.2613703 -0.59407049 -0.76076663 0.0040555294
0.097939447 0.1944716 0.65865946 0 0.28523874 -0.59080219 -0.75471306 0.0028460587
0.10351613 0.1949175 0.65683687 0 0.28346649 -0.59571964 -0.75150841 0.0025346901
0.106452 0.19455498 0.65630424 0 0.28116637 -0.59954894 -0.74932402 0.0025892535
0.23845495 0.17511356 0.63301754 0 -0.95352077 -0.052285757 -0.29675639 0.0019284736
0.093939632 0.19530404 0.65507662 0 0.2690016 -0.60009325 -0.7533434 0.0030682029
0.097897768 0.19648415 0.65398037 0 0.28406078 -0.60431063 -0.74439114 0.0030419577
0.10304227 0.19653523 0.65340352 0 0.27942798 -0.60663205 -0.74425638 0.0023687631
0.10742769 0.19681686 0.65269017 0 0.27452472 -0.60929513 -0.74390566 0.0016945205
0.11229613 0.19738388 0.6516391 0 0.27968922 -0.61121047 -0.74040246 0.0025263256
0.11724836 0.19754976 0.650168 0 0.27926037 -0.61068052 -0.74100131 0.0025169712
0.23618422 0.18105984 0.62938255 0 -0.95286149 -0.057330646 -0.29794005 0.001735826
0.10837735 0.19729376 0.64881587 0 0.27342889 -0.60964149 -0.74402541 0.0025424014
0.11261229 0.19764727 0.64755708 0 0.27553147 -0.61237895 -0.74099559 0.0026318876
0.1174439 0.19833452 0.64698178 0 0.2864016 -0.60926068 -0.73944277 0.0025126378
0.12216212 0.19874543 0.64690483 0 0.30596602 -0.60136229 -0.73807061 0.0026527008
0.12707232 0.19911903 0.64570022 0 0.31897771 -0.59218013 -0.73998374 0.0027108858
0.23430718 0.18409693 0.62593186 0 -0.94395298 -0.047862921 -0.32659128 0.0050354982
0.12165049 0.19931954 0.64287043 0 0.31067196 -0.60023373 -0.7370227 0.002910539
0.12673892 0.20022166 0.64201069 0 0.32557118 -0.5915342 -0.73762506 0.002875
0.13223046 0.20124197 0.64138937 0 0.3322832 -0.58127218 -0.7427721 0.0031662127
0.13578486 0.20139211 0.64088684 0 0.33012468 -0.57855016 -0.74585342 0.0021375243
0.23380475 0.18734086 0.62285024 0 -0.91907257 0.0078182574 -0.39401099 0.018331043
0.12780058 0.20136261 0.63904959 0 0.32786471 -0.58936822 -0.73834264 0.0033042652
0.13178451 0.20225036 0.6373111 0 0.34017029 -0.57620662 -0.7431488 0.0029548646
0.13598481 0.20316082 0.63666356 0 0.34115016 -0.57109624 -0.74663615 0.0023542165
0.14091529 0.20476907 0.6358481 0 0.33700207 -0.55758041 -0.75863934 0.0037608878
0.23387279 0.19132924 0.61948794 0 -0.87289917 0.056739807 -0.48459017 0.038041569
0.13706701 0.20506883 0.63268656 0 0.34835678 -0.52312386 -0.77781028 0.0081430133
0.14105837 0.20614672 0.63222384 0 0.34063399 -0.51496625 -0.78662455 0.011537172
0.14643918 0.20619398 0.63178515 0 0.32000989 -0.51651728 -0.79423141 0.0099302521
0.15062357 0.20701706 0.63064128 0 0.30296868 -0.49536338 -0.81414074 0.014541271
0.23383977 0.19572258 0.61617136 0 -0.81682307 0.11962032 -0.56435001 0.057381917
0.14129481 0.20778048 0.62879825 0 0.35689691 -0.42410088 -0.83232397 0.027513992
0.14568187 0.20723867 0.62800235 0 0.33186114 -0.44529817 -0.83161145 0.023931747
0.15060861 0.20807147 0.62749505 0 0.30334532 -0.42620981 -0.85224807 0.028821887
0.15523775 0.20884734 0.6261366 0 0.28202975 -0.3897967 -0.87665153 0.034363315
0.1596998 0.2096197 0.62575614 0 0.28765488 -0.37079731 -0.88304251 0.033461854
0.23396803 0.1985665 0.612499 0 -0.71519196 0.21934278 -0.66361827 0.075333163
0.15753163 0.20984221 0.62334919 0 0.27398011 -0.32794181 -0.90409571 0.03899223
0.160758 0.2106995 0.62240493 0 0.28769624 -0.30695012 -0.9072004 0.042624414
0.16503914 0.21098572 0.62112612 0 0.29574928 -0.28149688 -0.91284817 0.046018329
0.17043374 0.21118212 0.62024564 0 0.29873425 -0.28446159 -0.91095525 0.047664747
0.17424591 0.21052837 0.62050623 0 0.2710202 -0.32497361 -0.90605742 0.041262358
0.23476793 0.20212048 0.61002165 0 -0.63182712 0.24880172 -0.73409277 0.080577038
0.23733954 0.20168716 0.6067552 0 -0.60080814 0.38050771 -0.70302451 0.065283455
0.16471972 0.21281797 0.61689395 0 0.28546736 -0.12476157 -0.95023316 0.056743409
0.16968538 0.21305835 0.61635441 0 0.270711 -0.14931528 -0.95101029 0.05524008
0.17520209 0.21326923 0.61666846 0 0.26835233 -0.18613729 -0.94516665 0.050066758
0.17961623 0.2140851 0.61545879 0 0.25425148 -0.16435029 -0.95307148 0.046421003
0.18286701 0.21325082 0.61528677 0 0.26113564 -0.18105282 -0.9481709 0.044971112
0.2390721 0.20488966 0.60527611 0 -0.52190375 0.41450009 -0.74552411 0.063889019
0.24263252 0.20503014 0.6038332 0 -0.48495886 0.4852528 -0.7275607 0.049471956
0.155986 0.2194401 0.61312759 0 0.27440014 0.07955987 -0.95831883 0.045939103
0.16037305 0.21889836 0.61233169 0 0.2638106 0.072566934 -0.96184093 0.047429372
0.16423424 0.21695167 0.61305004 0 0.26857617 0.035364266 -0.96260893 0.051218934
0.16922794 0.21620446 0.61292654 0 0.25975719 0.0090766642 -0.96563125 0.049464785
0.17518367 0.216977 0.61321002 0 0.25935209 -0.050359096 -0.96446902 0.048521381
0.17833002 0.2165162 0.61349887 0 0.24428461 -0.083110526 -0.96613544 0.044822421
0.18270715 0.21651667 0.61218256 0 0.24615288 -0.07718347 -0.96615291 0.041120276
0.14193444 0.2244091 0.61255544 0 0.28585193 0.26155421 -0.92188835 0.035216454
0.14552619 0.22455561 0.61304086 0 0.30030832 0.22977166 -0.92575371 0.035530917
0.14963309 0.22332537 0.61286724 0 0.30280542 0.18044919 -0.93581355 0.042943716
0.15490513 0.22246444 0.61266631 0 0.2782895 0.15982865 -0.94710594 0.04106956
0.16031916 0.22245145 0.61233121 0 0.2591145 0.16619559 -0.95144033 0.040240411
0.16474612 0.22209775 0.61148393 0 0.25635716 0.14443231 -0.9557302 0.04400681
0.16981365 0.22076404 0.61116892 0 0.21352059 0.11890638 -0.96967542 0.041794524
0.17526095 0.21960026 0.61144459 0 0.25224301 0.01632083 -0.96752632 0.042576618
0.13597889 0.22730047 0.61155504 0 0.25496185 0.44467792 -0.85863608 0.016574776
0.14002177 0.22732902 0.61208963 0 0.27010113 0.41020164 -0.8710798 0.020998929
0.14546572 0.22758031 0.61175108 0 0.26609471 0.36328354 -0.89287102 0.022583826
0.14991702 0.22717285 0.61104316 0 0.26487863 0.33584961 -0.90390509 0.026713466
0.15402524 0.22619021 0.6114676 0 0.25094849 0.30007672 -0.92031455 0.029361956
0.16776146 0.22377253 0.60967195 0 0.21523693 0.16637085 -0.9622857 0.037774932
0.22505386 0.099074364 0.71565533 0 0.040351558 0.72891432 -0.68341464 0.019716414
0.23058595 0.098120034 0.71491349 0 -0.12084254 0.70043272 -0.7034139 0.050999925
0.23426507 0.097665668 0.71424603 0 -0.27483633 0.64466012 -0.71335709 0.067370817
0.23990001 0.096873581 0.71367204 0 -0.47960886 0.55696523 -0.6780597 0.06929221
0.13659455 0.11325294 0.72856212 0 0.11675895 0.74210572 -0.66003519 0.0021006139
0.14321698 0.1124351 0.72736067 0 0.10223986 0.75160271 -0.65164441 0.0029712191
0.14616032 0.11207169 0.72682679 0 0.090755045 0.75688207 -0.64721936 0.0031091876
0.1519206 0.11123341 0.72637808 0 0.060060412 0.77812868 -0.62522668 0.0036200355
0.15679583 0.11092007 0.72616309 0 0.033442974 0.78720671 -0.61578155 0.0040161572
0.16139336 0.11001921 0.7254473 0 -0.0033462141 0.79604238 -0.60523164 0.0054224757
0.16653289 0.11006898 0.7247684 0 -0.056929149 0.80312324 -0.59308696 0.0053260392
0.1709858 0.10908669 0.72295582 0 -0.09539894 0.80806792 -0.58131343 0.004771274
0.17412166 0.10861856 0.72175407 0 -0.10610954 0.8050124 -0.58369154 0.0039092964
0.20502637 0.10480201 0.71614754 0 0.12700951 0.76213121 -0.63484216 0.0023184982
0.21017714 0.10416591 0.71521306 0 0.16080651 0.75514936 -0.63552403 0.0010803455
0.21644728 0.10409582 0.71481782 0 0.16541231 0.74949211 -0.64101499 0.0022889148
0.22001882 0.10305834 0.71427149 0 0.12990952 0.7422244 -0.65743929 0.0048391349
0.22500046 0.10016572 0.71461797 0 0.017394127 0.72663587 -0.68680245 0.023387557
0.2309521 0.10083377 0.71502811 0 -0.13610272 0.68903029 -0.71183801 0.054068331
0.24127968 0.099558294 0.71315444 0 -0.56665277 0.49327791 -0.65998608 0.073617309
0.24400447 0.099606514 0.71086687 0 -0.65861624 0.41494641 -0.6277293 0.066702068
0.11243002 0.1196574 0.73106658 0 0.10154524 0.78446192 -0.61180723 0.0024071473
0.11656702 0.11898053 0.72905421 0 0.11192279 0.78062952 -0.61489093 0.0022952773
0.12392527 0.11807185 0.72771937 0 0.11800127 0.76929986 -0.62789613 0.0026893592
0.12686859 0.11770838 0.72718543 0 0.12195408 0.76182848 -0.63619536 0.003322728
0.13234822 0.11665475 0.72797704 0 0.11490609 0.74835169 -0.65327352 0.0037104392
0.13733493 0.11576712 0.72733468 0 0.11577488 0.74369949 -0.65841264 0.0027366059
0.1417502 0.11535752 0.72640288 0 0.11178207 0.7457146 -0.65682155 0.0029421961
0.14647232 0.11460245 0.7261861 0 0.10497439 0.76323146 -0.6375407 0.0024528755
0.15170078 0.11410087 0.72604644 0 0.072470792 0.77139145 -0.63222086 0.0028509453
0.15702282 0.11322612 0.72529089 0 0.036369689 0.78012896 -0.62456065 0.0040089521
0.16144894 0.1126796 0.72448796 0 0.0037531948 0.78982747 -0.61331767 0.0047840304
0.16882579 0.11176854 0.72314966 0 -0.071605243 0.80083621 -0.59458721 0.0050376863
0.17177655 0.11140418 0.72261441 0 -0.098772921 0.79838014 -0.5939976 0.004630188
0.17609014 0.1110431 0.72044736 0 -0.11498126 0.79494423 -0.59568691 0.0036189293
0.18107672 0.11107755 0.71886986 0 -0.10235602 0.78731495 -0.60799551 0.0049080327
0.18538006 0.11021131 0.71683222 0 -0.067450859 0.78588945 -0.61467725 0.0063972049
0.19014962 0.10989356 0.71570528 0 -0.024101673 0.77782291 -0.62802124 0.0068507832
0.19549237 0.10931671 0.71536684 0 0.034825724 0.77200741 -0.63465875 0.0047384547
0.20066251 0.10862553 0.71519065 0 0.090698361 0.76768309 -0.63437879 0.0030262913
0.20549233 0.10801435 0.71511883 0 0.12912235 0.76385689 -0.63233697 0.0019956073
0.21010949 0.10721403 0.71513534 0 0.15330814 0.75758499 -0.63447738 0.0010989154
0.21479042 0.10645473 0.71446109 0 0.16533394 0.75348926 -0.63633215 0.0015584123
0.24427138 0.10297334 0.70782119 0 -0.76407468 0.33342287 -0.55228519 0.05611553
0.064845562 0.12970692 0.73424911 0 0.13607882 0.74412322 -0.65403622 0.0040146275
0.075147122 0.12843472 0.73238027 0 0.11942277 0.76199281 -0.63647866 0.0020742253
0.078229204 0.12852997 0.73230982 0 0.11309237 0.76263314 -0.63686794 0.0023224927
0.08250539 0.1275261 0.73104542 0 0.10365576 0.7683304 -0.63160419 0.0020022448
0.088000908 0.12698454 0.73105359 0 0.103797 0.76636404 -0.63396549 0.0025007653
0.093469411 0.12552857 0.73109949 0 0.1062587 0.76887709 -0.63050556 0.002587154
0.096620679 0.12528646 0.73085976 0 0.10938179 0.77294123 -0.62497795 0.0023581351
0.10354318 0.12357205 0.72853756 0 0.10181991 0.78270358 -0.61400962 0.0021928558
0.10788469 0.12275308 0.72944498 0 0.098400906 0.78554475 -0.61093098 0.0022755961
0.11161214 0.12138695 0.72964311 0 0.099658102 0.78421032 -0.61243975 0.0019084413
0.11740336 0.12079763 0.72799689 0 0.10766868 0.77846098 -0.61838979 0.0028058344
0.12232603 0.12098938 0.72741538 0 0.10894874 0.77008575 -0.62856835 0.003728336
0.12703823 0.12062663 0.72716159 0 0.11115375 0.76209974 -0.63784689 0.0029968391
0.18341888 0.11322892 0.71735311 0 -0.09619832 0.7800982 -0.61821741 0.0044436441
0.18635623 0.11313802 0.7165578 0 -0.074321665 0.77817535 -0.62363404 0.0057476368
0.19079576 0.11231798 0.71601492 0 -0.02342719 0.77473992 -0.63184589 0.00613312
0.19374646 0.1119535 0.71547955 0 0.0026741116 0.77630979 -0.630346 0.0061841509
0.24378006 0.10669416 0.70409316 0 -0.81244195 0.27512497 -0.51404697 0.052627902
0.047025487 0.13516194 0.73434079 0 0.11482958 0.68070078 -0.72350585 0.0074028769
0.052912116 0.134435 0.73327297 0 0.14650069 0.69376427 -0.70514446 0.0061854171
0.058379218 0.13389969 0.73328364 0 0.15742482 0.7046833 -0.69183719 0.006460242
0.063232139 0.13228416 0.73395288 0 0.1493036 0.7279613 -0.66916424 0.0058092778
0.067870095 0.13142538 0.73281884 0 0.13823485 0.73845381 -0.65998262 0.0048019364
0.072778329 0.13109553 0.7321493 0 0.13147022 0.74707305 -0.65161151 0.0036294775
0.079928607 0.13035941 0.73192912 0 0.10784469 0.75571233 -0.64596301 0.0030557022
0.082879364 0.12999511 0.73139387 0 0.10258654 0.75686026 -0.64547545 0.0031996197
0.086567774 0.12953955 0.73072463 0 0.1008696 0.75863343 -0.64366186 0.0029241636
0.24308611 0.11034244 0.70030624 0 -0.8699736 0.16176413 -0.4658092 0.037033428
0.010809787 0.14288867 0.73776972 0 0.092588849 0.62347209 -0.77634388 0.0029297909
0.014488928 0.14243436 0.73710233 0 0.085536182 0.62629217 -0.77488184 0.0036653369
0.018549308 0.1416617 0.73662746 0 0.084983326 0.63342476 -0.76912349 0.0040693968
0.02371344 0.14075273 0.73595232 0 0.092460439 0.64203775 -0.76107728 0.0050178631
0.028217986 0.139871 0.73544919 0 0.078547016 0.65089929 -0.75508982 0.0055766804
0.034042999 0.14006954 0.73513186 0 0.069971912 0.65440762 -0.7528975 0.0052516544
0.038527891 0.13837796 0.73521316 0 0.086120419 0.66050375 -0.74586737 0.0059009213
0.044359013 0.13801467 0.73523295 0 0.11580208 0.66627365 -0.73666096 0.0071203746
0.049013451 0.13775474 0.73286581 0 0.13561179 0.67083585 -0.72910136 0.0059309425
0.053184479 0.13746852 0.73310703 0 0.15251836 0.67991489 -0.7172544 0.0060001495
0.056161985 0.13655704 0.73309165 0 0.15753452 0.68919498 -0.70724332 0.0069553074
0.24238043 0.11400026 0.69717741 0 -0.90057868 0.10553666 -0.42168716 0.026501667
-0.014421955 0.15034372 0.738159 0 0.18232003 0.49103472 -0.85184759 0.028860308
-0.010742813 0.14988947 0.73749161 0 0.18309568 0.5043695 -0.8438527 0.025969114
-0.0050978139 0.1492663 0.7369647 0 0.17528977 0.5314402 -0.82876098 0.018300161
-0.00037886947 0.14830965 0.7363748 0 0.13624091 0.57866567 -0.80410486 0.0084058
0.0043359026 0.14788431 0.73546273 0 0.11169378 0.58289135 -0.80483675 0.0078096287
0.0096424222 0.14637268 0.73541421 0 0.092560612 0.60873747 -0.78795373 0.004077523
0.014440082 0.14563704 0.73497361 0 0.088470727 0.61447918 -0.78395677 0.0040318454
0.018885799 0.14454496 0.7346912 0 0.093585819 0.62978142 -0.77111417 0.0039018714
0.023905091 0.14413363 0.73418272 0 0.099470079 0.63059068 -0.76971495 0.0042498549
0.029117435 0.14381194 0.73421901 0 0.079141997 0.63274992 -0.77030128 0.0045898575
0.033106297 0.14321059 0.73360038 0 0.075369813 0.63436019 -0.76935458 0.0045485226
0.24300645 0.1180737 0.69381577 0 -0.93587112 0.029836126 -0.35107687 0.008047089
-0.044015221 0.15725267 0.74038649 0 0.16283618 0.26527932 -0.95032161 0.063176386
-0.040336087 0.15679836 0.73971909 0 0.16696456 0.30149585 -0.93873495 0.060685776
-0.035921134 0.15625316 0.73891819 0 0.1876747 0.31078893 -0.93176627 0.058831986
-0.030034542 0.1555261 0.73785019 0 0.17952609 0.31099734 -0.93330121 0.063816689
-0.025619574 0.15498096 0.73704928 0 0.2095333 0.31523287 -0.92559385 0.064551599
-0.019742645 0.15438634 0.73775238 0 0.21148206 0.40151504 -0.89110094 0.046749201
-0.015483893 0.15346801 0.73759562 0 0.21087925 0.43441203 -0.87568033 0.040316466
-0.010626033 0.15285259 0.73744029 0 0.20283414 0.4544113 -0.86739194 0.035722032
-0.0057799071 0.15228522 0.7365312 0 0.19935478 0.47770956 -0.85559994 0.030606557
0.0004606694 0.15104842 0.73584884 0 0.1439978 0.52811527 -0.83687449 0.017926602
0.0034114197 0.150684 0.73531353 0 0.12710947 0.52705252 -0.84027308 0.018604763
0.007837534 0.15013742 0.73451054 0 0.11235733 0.53547961 -0.83704084 0.014550845
0.2431059 0.12217063 0.69077951 0 -0.94903344 0.014739328 -0.31483078 0.0021007988
-0.049251482 0.15963495 0.73966116 0 0.19385901 0.15071779 -0.9693827 0.065578379
-0.04468061 0.15963989 0.73828214 0 0.19471517 0.089346737 -0.97678202 0.070969127
-0.039890088 0.15927869 0.73770791 0 0.17095073 0.15833446 -0.97247428 0.070005044
-0.035180598 0.15916157 0.73802114 0 0.19591838 0.19847654 -0.96032447 0.071793154
-0.029945113 0.15806597 0.73821592 0 0.19649306 0.27147618 -0.9421736 0.069777191
-0.024781317 0.15742821 0.73727906 0 0.2206855 0.28698432 -0.93216836 0.065136425
0.24179198 0.1248616 0.68715489 0 -0.95374584 0.0067919842 -0.30053747 0.0013901039
-0.044964716 0.16170901 0.73637056 0 0.21017383 -0.012484252 -0.97758436 0.071540534
-0.040576473 0.16170949 0.73505092 0 0.22376251 -0.013796221 -0.97454607 0.069439664
-0.035346858 0.16234028 0.733904 0 0.23378833 -0.083717987 -0.96867663 0.068310015
0.24048226 0.12754267 0.68353891 0 -0.95621091 -0.0044825836 -0.29264396 0.0015496182
0.24184705 0.1295436 0.68119717 0 -0.95696956 -0.011029182 -0.28997844 0.0017263573
-0.033311144 0.1648078 0.73129827 0 0.23097615 -0.23119259 -0.94509268 0.05133532
-0.030453108 0.16516966 0.72937876 0 0.24062042 -0.23651932 -0.94136089 0.05198409
-0.026051506 0.16608351 0.72788441 0 0.28235009 -0.27201363 -0.91993862 0.050480831
-0.020302519 0.16582835 0.72741836 0 0.30064964 -0.22059143 -0.92787349 0.055097952
-0.017095178 0.16517913 0.72748703 0 0.28571668 -0.18172909 -0.9409253 0.058545493
0.24144439 0.13196313 0.68040484 0 -0.95708996 -0.015488256 -0.28937706 0.0016598619
-0.020320542 0.16625905 0.72457039 0 0.30250454 -0.32114878 -0.8974154 0.038284253
-0.015603207 0.16757661 0.72301799 0 0.30789074 -0.34148076 -0.88802826 0.03520415
-0.011763334 0.16859883 0.72258341 0 0.3137435 -0.35343996 -0.88127482 0.033120465
0.24163939 0.13546938 0.6769619 0 -0.95773351 -0.028426634 -0.28624901 0.0016944794
-0.015356727 0.16944265 0.7200051 0 0.31341153 -0.43420148 -0.84453672 0.018163465
-0.011555195 0.170183 0.71866465 0 0.30448017 -0.46528783 -0.8311432 0.013153764
-0.0081176981 0.17129654 0.7177459 0 0.29806927 -0.48693916 -0.82100242 0.0077625033
0.24203511 0.13901728 0.67313397 0 -0.95860022 -0.039052241 -0.28206488 0.0019965528
-0.010392912 0.17262632 0.71543992 0 0.30621964 -0.52824146 -0.79195356 0.0029521515
-0.0059265122 0.17245227 0.71497625 0 0.29480916 -0.53340071 -0.79282486 0.0031962253
-0.0015447587 0.1731227 0.71324897 0 0.28170675 -0.5413298 -0.7922141 0.0038985019
0.0027204528 0.1729843 0.71257424 0 0.25853163 -0.54663467 -0.79646206 0.003558723
0.0071234405 0.17371589 0.71196657 0 0.24077258 -0.55799681 -0.79414612 0.0025947646
0.24102984 0.14349037 0.66987699 0 -0.95851094 -0.051979791 -0.2802763 0.0020238231
-0.00025159866 0.17462826 0.71045893 0 0.26922637 -0.55055767 -0.79019201 0.0035402258
0.0012200549 0.17444652 0.71019197 0 0.26115432 -0.55671507 -0.78858525 0.0035245274
0.0080390051 0.17486733 0.70825297 0 0.23424158 -0.56116349 -0.79386812 0.0025346875
0.012720533 0.17606872 0.70730197 0 0.2289537 -0.56385058 -0.79350656 0.0019514384
0.24039884 0.14751774 0.66712749 0 -0.95782012 -0.070472665 -0.27859306 0.001823048
0.013251349 0.1768685 0.70494837 0 0.22923838 -0.56449789 -0.79296398 0.0028781621
0.017119534 0.17800742 0.70360047 0 0.23630932 -0.56398118 -0.79125416 0.00318852
0.022725448 0.17853171 0.70262796 0 0.23487033 -0.57007486 -0.78730589 0.0022808795
0.027709097 0.17733425 0.70181161 0 0.2333995 -0.57098365 -0.78708476 0.0023384134
0.031764425 0.17658406 0.70065296 0 0.24099547 -0.57673967 -0.78057194 0.0031025661
0.035107866 0.17722005 0.70017165 0 0.24365422 -0.5793376 -0.77781779 0.0028082896
0.23908834 0.15017605 0.66353333 0 -0.96009934 -0.07676509 -0.2689169 0.0022240274
0.023055963 0.17969269 0.69978303 0 0.23247956 -0.57377404 -0.78532588 0.0024578245
0.027121872 0.17941111 0.69846666 0 0.23240346 -0.57490027 -0.78452426 0.0031243549
0.031750806 0.17826945 0.6973238 0 0.24231204 -0.57434553 -0.78192842 0.0035915396
0.0366126 0.17827642 0.69626206 0 0.24010016 -0.57739359 -0.78036433 0.0031674206
0.041416004 0.17972291 0.69522756 0 0.23991285 -0.58195287 -0.77702814 0.0029550539
0.045730919 0.17989576 0.6943956 0 0.24007992 -0.58105522 -0.77764809 0.0028152498
0.23839371 0.15358263 0.66016954 0 -0.96087766 -0.074444331 -0.26678118 0.0018064025
0.036741354 0.18090755 0.6932773 0 0.23697633 -0.58367485 -0.77663755 0.0037568908
0.041615054 0.18159163 0.69172066 0 0.23998331 -0.58238101 -0.77668554 0.0024975473
0.046315417 0.18210888 0.69137263 0 0.2432896 -0.58018732 -0.77729845 0.0028214564
0.049486727 0.18305689 0.69021517 0 0.25264433 -0.57511806 -0.77808106 0.0020569498
0.23865946 0.15777022 0.65661663 0 -0.96055388 -0.066294581 -0.27007651 0.002269825
0.041731909 0.18354559 0.68923086 0 0.24370021 -0.58822918 -0.77110088 0.0027893905
0.046601772 0.1836673 0.68764925 0 0.25315875 -0.58058208 -0.77384436 0.0024525931
0.050662488 0.1842196 0.68715954 0 0.25871503 -0.57773346 -0.77413851 0.002669218
0.056084409 0.1839481 0.68633765 0 0.25253546 -0.57634115 -0.77721089 0.0027774426
0.060259253 0.18312103 0.68549293 0 0.26139438 -0.57331413 -0.77652031 0.0022987938
0.23707993 0.16128618 0.65341324 0 -0.959867 -0.053223629 -0.27535915 0.0024618441
0.06224671 0.18587273 0.68176538 0 0.26732102 -0.58050859 -0.76912236 0.0034160165
0.065198049 0.18618155 0.68081719 0 0.27515173 -0.57674563 -0.7691918 0.0021520504
0.069946155 0.1864838 0.67972273 0 0.27146405 -0.58003646 -0.76802665 0.001996581
0.074702859 0.18719298 0.67864263 0 0.25955123 -0.57992858 -0.77221501 0.0019731913
0.2357495 0.16446692 0.64932114 0 -0.95821917 -0.044424132 -0.28256446 0.0024487828
0.066376045 0.18809551 0.67743057 0 0.27060503 -0.58530051 -0.76432729 0.0024348304
0.070817858 0.18839198 0.67621541 0 0.27254164 -0.58386141 -0.76473981 0.0023948189
0.075334743 0.18877459 0.67534596 0 0.25722194 -0.58295804 -0.7707119 0.0025347825
0.079660386 0.18977076 0.67466408 0 0.2429802 -0.58447057 -0.77418005 0.0026228705
0.085097834 0.18953425 0.67325777 0 0.24139935 -0.5887242 -0.77144676 0.0034449815
0.089523956 0.18898767 0.67245477 0 0.25605896 -0.59255862 -0.76374614 0.0027591093
0.23670562 0.16893476 0.64614326 0 -0.95791531 -0.045526601 -0.28341749 0.0024921221
0.076517358 0.19009739 0.67244959 0 0.25123611 -0.58688158 -0.76970798 0.0024921212
0.07950455 0.19053495 0.67160332 0 0.24143212 -0.58515966 -0.77414393 0.002933833
0.084702298 0.1906994 0.67035604 0 0.23986776 -0.58954799 -0.77129543 0.0035098845
0.089907363 0.19023293 0.66955751 0 0.25176421 -0.59514087 -0.76316577 0.0033411558
0.094071031 0.19096369 0.66918063 0 0.26608285 -0.59536082 -0.7581197 0.0030450337
0.097477853 0.19126791 0.66786271 0 0.27114981 -0.59353775 -0.75775373 0.0029741714
0.23669614 0.17206955 0.64240927 0 -0.95736527 -0.050793026 -0.28437966 0.0025139782
0.084696487 0.19234169 0.66782469 0 0.23590074 -0.59234124 -0.77037823 0.0030848568
0.089601979 0.19173592 0.66693473 0 0.25358874 -0.59430623 -0.76321226 0.0027797385
0.094371483 0.19141805 0.66580766 0 0.26970986 -0.59204453 -0.75943398 0.0032629238
0.099056095 0.19281101 0.66392994 0 0.27714065 -0.58625031 -0.76125127 0.0027048015
0.1045333 0.19312572 0.66300058 0 0.28706339 -0.58089268 -0.7616812 0.0026577858
0.1085289 0.1932615 0.66214234 0 0.28457651 -0.58031839 -0.76305091 0.0023517215
0.11201738 0.19382244 0.66102624 0 0.28453633 -0.5828526 -0.76113194 0.0023976711
0.23635794 0.17603761 0.63939178 0 -0.95524997 -0.049510073 -0.29162678 0.0023694723
0.10113481 0.19519305 0.66013068 0 0.28331059 -0.58384669 -0.76082724 0.0027163436
0.10407811 0.19482958 0.65959674 0 0.28709134 -0.58487564 -0.75861657 0.0028761975
0.10871913 0.19486362 0.65852416 0 0.28710908 -0.58719575 -0.75681537 0.0032979646
0.11281346 0.19559532 0.65826321 0 0.27636975 -0.59643239 -0.75358355 0.0015428911
0.11775821 0.19637609 0.65683568 0 0.26625055 -0.60091466 -0.7536658 0.0015243147
0.2372777 0.17945588 0.63561279 0 -0.95559186 -0.048218597 -0.29072171 0.0021474625
0.10909535 0.19692189 0.65606892 0 0.27911559 -0.6033752 -0.74701601 0.0019077127
0.11393206 0.19755989 0.6548118 0 0.27478346 -0.60475284 -0.74750781 0.0016489892
0.11862965 0.19768816 0.6541695 0 0.27271315 -0.60023713 -0.75189298 0.0018986496
0.12325138 0.19795245 0.65325648 0 0.29294902 -0.59410173 -0.74914879 0.0022303786
0.12756969 0.19815499 0.65216899 0 0.30375916 -0.58700526 -0.75043666 0.0016720531
0.2359551 0.18309176 0.63298845 0 -0.95241618 -0.059968255 -0.29884306 0.0025972044
0.11997248 0.19883293 0.65095448 0 0.28539905 -0.60424829 -0.74392968 0.0020859251
0.1229158 0.19846952 0.65042055 0 0.3000353 -0.59965169 -0.74188721 0.0027403256
0.12822933 0.19923419 0.6491515 0 0.31357238 -0.58930117 -0.74457806 0.0026977961
0.13287202 0.20001 0.64720446 0 0.32452276 -0.58194405 -0.74567157 0.0022227578
0.13697033 0.20009482 0.64633298 0 0.32912987 -0.58128089 -0.74416804 0.0025757048
0.2339827 0.18719101 0.62934029 0 -0.94120079 -0.085591793 -0.32682607 0.0050026509
0.1330037 0.20156282 0.64440221 0 0.33259588 -0.58339602 -0.74096501 0.0028501675
0.13806358 0.20220506 0.64320916 0 0.33566681 -0.57809609 -0.743729 0.0026073689
0.1413383 0.20397669 0.64241076 0 0.33030537 -0.58058691 -0.7441889 0.0024862164
0.23302259 0.19029582 0.62521017 0 -0.90516192 -0.067794383 -0.41962603 0.017346172
0.13873003 0.20410991 0.64022213 0 0.33329362 -0.58069682 -0.74276948 0.0022311157
0.14205818 0.20533037 0.63899165 0 0.328435 -0.57458818 -0.7496525 0.0019530116
0.14698173 0.20626819 0.63802832 0 0.31809741 -0.57537305 -0.75349849 0.0037398199
0.23389138 0.19453627 0.62275183 0 -0.8700012 -0.018009979 -0.49272048 0.037246026
0.14739972 0.20629358 0.63550824 0 0.3161386 -0.55284137 -0.77098829 0.0051295515
0.15217791 0.20727026 0.63419545 0 0.29932618 -0.55003572 -0.77965665 0.0072796284
0.15622276 0.20811206 0.63299656 0 0.27982065 -0.5325098 -0.79883277 0.008577113
0.23307903 0.19816405 0.61902046 0 -0.79942662 0.0064738262 -0.60072881 0.065553755
0.15722059 0.20960999 0.63030273 0 0.27940387 -0.48741469 -0.82726079 0.018849097
0.1617205 0.21012092 0.62913406 0 0.29414457 -0.45704788 -0.83939642 0.022381881
0.16669033 0.21044141 0.62760144 0 0.30131698 -0.42674351 -0.85270041 0.027287759
0.17124106 0.2103619 0.6269027 0 0.28798348 -0.44274062 -0.84914452 0.024430109
0.17422672 0.21115273 0.62559736 0 0.28893504 -0.41192675 -0.86419499 0.02932919
0.23248841 0.20120949 0.61483651 0 -0.6959728 0.12696904 -0.70675367 0.081900075
0.16615726 0.2115705 0.62477589 0 0.30151656 -0.34646437 -0.88828504 0.040371969
0.17055885 0.21129811 0.62371558 0 0.30441332 -0.36563388 -0.8795706 0.03878063
0.17638241 0.21194881 0.62228483 0 0.28369203 -0.3559154 -0.8904174 0.038171589
0.18047719 0.21328092 0.62166423 0 0.27647761 -0.33345091 -0.90131599 0.041250203
0.23290612 0.20462906 0.61141014 0 -0.61396968 0.22668667 -0.7560783 0.087521106
0.17777021 0.21339065 0.61952794 0 0.27019829 -0.27714783 -0.9220531 0.045219112
0.18107159 0.21439123 0.61838233 0 0.27754405 -0.25471336 -0.92633164 0.046785787
0.18543376 0.21494269 0.61730617 0 0.28001946 -0.23909056 -0.92974454 0.040573422
0.18986084 0.21531206 0.61688274 0 0.25504339 -0.22836617 -0.93957537 0.039798781
0.23147167 0.21006459 0.60943884 0 -0.46377468 0.21976033 -0.8582648 0.088685207
0.23441558 0.20793456 0.60890347 0 -0.51580292 0.2757307 -0.81112254 0.072815426
0.23767377 0.20900244 0.60717762 0 -0.50769603 0.31837508 -0.80055112 0.071480468
0.24677758 0.20812291 0.60386777 0 -0.38054475 0.53728658 -0.75266784 0.042300016
0.18085928 0.21858799 0.61358267 0 0.26423001 -0.086242691 -0.96059602 0.043746244
0.185277 0.2178334 0.61329907 0 0.26897788 -0.11277198 -0.95652151 0.039677754
0.18988438 0.21818143 0.61363214 0 0.25396797 -0.14809887 -0.95580697 0.036632504
0.19459109 0.21828955 0.61258686 0 0.24303615 -0.17192577 -0.95465952 0.038068067
0.20030145 0.21772033 0.61141974 0 0.25067306 -0.12826665 -0.95953673 0.043338154
0.24024363 0.2106126 0.60627288 0 -0.50011927 0.34018284 -0.79633939 0.066685751
0.24614508 0.20988375 0.60520226 0 -0.42310008 0.49152845 -0.7611742 0.04315215
0.24672417 0.20921427 0.60283041 0 -0.38269818 0.51417625 -0.76757079 0.039702203
0.16110131 0.2252121 0.61312848 0 0.24866407 0.17491655 -0.95266485 0.041687258
0.17140289 0.2239399 0.61125964 0 0.20929867 0.12220602 -0.97018552 0.039463438
0.17551558 0.22320986 0.61113423 0 0.23789859 0.095418818 -0.96659172 0.03916131
0.18073599 0.22283447 0.61141694 0 0.23325618 0.023689512 -0.97212672 0.040308204
0.1850826 0.2221092 0.61049438 0 0.23586516 0.0097252307 -0.97173709 0.036473572
0.1897289 0.22173584 0.6103158 0 0.22808219 -0.0034488114 -0.97363585 0.033994474
0.19281746 0.22081947 0.61067796 0 0.22851929 -0.09987238 -0.96840304 0.036301903
0.15594395 0.22953016 0.61122191 0 0.23246944 0.38026711 -0.89518422 0.024513543
0.16062315 0.22843605 0.61181945 0 0.23299286 0.30453172 -0.92356634 0.029880675
0.16575472 0.22711694 0.61131305 0 0.20786931 0.20574629 -0.95627344 0.036511596
0.17007484 0.22611851 0.61050403 0 0.20764019 0.1878041 -0.96000797 0.034837309
0.17569007 0.22619718 0.61063606 0 0.21556331 0.14695551 -0.96536857 0.03515188
0.15263435 0.23285073 0.61114478 0 0.19002113 0.54256278 -0.81824052 0.0055673458
0.1553362 0.23194063 0.61007339 0 0.18613102 0.50514603 -0.84272337 0.0076615792
0.15990821 0.23166704 0.60962677 0 0.18304615 0.45637485 -0.87075597 0.013376139
0.22277097 0.10542744 0.71589738 0 0.07370317 0.74056268 -0.66793311 0.012179011
0.22601731 0.1049509 0.71632946 0 -0.0047859866 0.74383456 -0.66834664 0.026683582
0.23059173 0.10462075 0.71574694 0 -0.13643543 0.7022391 -0.69874585 0.049547445
0.23573424 0.10375261 0.715671 0 -0.3024644 0.6404444 -0.70593643 0.067481488
0.24027373 0.10316789 0.71438104 0 -0.48239809 0.56262493 -0.67137551 0.075215496
0.24350514 0.1023218 0.71266204 0 -0.646016 0.44023591 -0.6235829 0.06769684
0.13386433 0.11967772 0.72886938 0 0.10530125 0.75523752 -0.64693743 0.0024352288
0.13682251 0.11931241 0.72833276 0 0.11017671 0.75381732 -0.64778131 0.0026060231
0.14421798 0.11839908 0.72699106 0 0.12035329 0.7518543 -0.64825177 0.0018283841
0.14717616 0.11803377 0.72645444 0 0.11339695 0.75380754 -0.6472367 0.0019481311
0.15248166 0.11691135 0.72594291 0 0.070518911 0.76636589 -0.63852215 0.0026884738
0.1578071 0.1162982 0.72600031 0 0.038045939 0.77627176 -0.62924933 0.0036275298
0.16241145 0.11655122 0.72520155 0 -0.0015595752 0.78144878 -0.62396735 0.00446781
0.16698851 0.11567646 0.72514391 0 -0.044902135 0.78343171 -0.61985368 0.0049584471
0.17201327 0.11530644 0.72339791 0 -0.096897647 0.78179389 -0.61596197 0.0041678832
0.17601849 0.11447191 0.72122198 0 -0.1084023 0.78007293 -0.61622655 0.0039487784
0.21077718 0.11017942 0.71491617 0 0.15467376 0.76183259 -0.62903655 0.0016153363
0.21578838 0.10964221 0.71463931 0 0.16383746 0.75675553 -0.6328336 0.0015867591
0.22084175 0.10902542 0.71537447 0 0.095368579 0.75096697 -0.65341669 0.010166121
0.22547625 0.10867482 0.71564692 0 -0.019909509 0.73844975 -0.67401451 0.031456247
0.23130785 0.10758024 0.71551913 0 -0.17755063 0.70028317 -0.69143271 0.058456015
0.23501952 0.10712188 0.71484578 0 -0.29950491 0.66146988 -0.68757135 0.071174532
0.24125709 0.10627055 0.71237034 0 -0.58712512 0.50771159 -0.63048637 0.072495356
0.24337094 0.10506397 0.71005547 0 -0.69652647 0.39845094 -0.59673083 0.06472069
0.090755865 0.1293624 0.73248053 0 0.11228207 0.7577967 -0.6427573 0.0033204772
0.093714058 0.12899709 0.73194391 0 0.11431117 0.76147026 -0.63804072 0.0035725741
0.098151341 0.12844908 0.73113889 0 0.11358475 0.76787788 -0.63044596 0.0028395541
0.10258862 0.12790114 0.73033392 0 0.11222392 0.77112597 -0.62671405 0.0034274296
0.1086023 0.12774676 0.73057103 0 0.099457391 0.77957529 -0.61836118 0.0022028503
0.11347049 0.12681383 0.73079813 0 0.097865276 0.77953351 -0.61866784 0.0021362293
0.11764666 0.12644011 0.72982448 0 0.092617773 0.77396297 -0.62642092 0.0028058253
0.12307662 0.12616354 0.72851825 0 0.10068232 0.76705396 -0.63363349 0.0025808976
0.12827161 0.12512845 0.72789651 0 0.10518216 0.76004124 -0.64130652 0.0025545827
0.13279821 0.12333411 0.72834659 0 0.10503924 0.75550944 -0.64666241 0.0022402254
0.13779439 0.12263191 0.72755116 0 0.11167566 0.75687879 -0.64394343 0.002344918
0.14271383 0.12218857 0.7266295 0 0.12361567 0.75360668 -0.6455974 0.0018466766
0.14750953 0.12122399 0.72668779 0 0.1160057 0.75685078 -0.64321041 0.0021306316
0.15222026 0.12037158 0.7258811 0 0.090035729 0.76413554 -0.63874143 0.0026039565
0.15765478 0.11995912 0.725712 0 0.044791747 0.77788413 -0.62680936 0.0035530156
0.17175917 0.11821729 0.72315323 0 -0.085244387 0.77308047 -0.62855381 0.0049528843
0.17696594 0.11743474 0.72112441 0 -0.11697139 0.76910836 -0.62832326 0.0034663111
0.18149938 0.11684602 0.71902072 0 -0.11676123 0.76925266 -0.62818563 0.0032851221
0.18585835 0.11621994 0.71705079 0 -0.085129015 0.77071017 -0.63147372 0.0049692425
0.19148703 0.11638296 0.71675873 0 -0.027273407 0.76792693 -0.63995653 0.0056147235
0.1964369 0.11524951 0.71656793 0 0.032213029 0.77326125 -0.63326883 0.0047230008
0.201178 0.11433113 0.71584845 0 0.085043736 0.77349472 -0.62807125 0.0029959234
0.20611663 0.11414546 0.71490628 0 0.12681708 0.76808751 -0.62766153 0.0013432318
0.21125846 0.11282152 0.71435428 0 0.15248388 0.76464736 -0.6261493 0.0017860894
0.21572544 0.11270642 0.71454453 0 0.15372489 0.76013017 -0.63132459 0.0020838813
0.21961795 0.11243522 0.71387315 0 0.10834996 0.7555995 -0.64601058 0.0086039715
0.24294274 0.11106807 0.70865494 0 -0.71933615 0.38114792 -0.58075964 0.07030791
0.24365015 0.10902089 0.70672119 0 -0.76786876 0.33035535 -0.54885614 0.062700547
0.061012954 0.13630629 0.73471934 0 0.16299783 0.69783068 -0.69746971 0.0072460594
0.06435433 0.13562107 0.73437625 0 0.16003264 0.70738024 -0.68847877 0.0065634754
0.068617716 0.13581246 0.73433179 0 0.1490777 0.71024203 -0.68799138 0.0064302445
0.074282587 0.13531101 0.73339731 0 0.14145572 0.72107756 -0.67826051 0.0055168224
0.078909472 0.13412863 0.73339653 0 0.1223766 0.74126709 -0.65995997 0.0046772212
0.083511904 0.13393945 0.73213637 0 0.10415702 0.74805731 -0.65540946 0.0042809159
0.089091077 0.1331858 0.73170793 0 0.10348385 0.75085688 -0.65230745 0.0036485996
0.0941609 0.13287449 0.731543 0 0.11895005 0.746135 -0.65508288 0.0037442676
0.098639071 0.13114798 0.73170537 0 0.11810141 0.76082033 -0.63812578 0.0035561603
0.10250625 0.13114715 0.73149157 0 0.11964428 0.75261486 -0.64749986 0.0037997994
0.10918728 0.13032204 0.73027951 0 0.10736269 0.76562423 -0.6342656 0.0029433484
0.11215663 0.12995535 0.7297408 0 0.10076224 0.76872849 -0.63158798 0.0028167109
0.24261661 0.1146993 0.70477396 0 -0.79964739 0.2689296 -0.53688073 0.066419579
0.24299513 0.11274219 0.70275724 0 -0.85348922 0.20260739 -0.48011082 0.047968935
0.040022865 0.14228714 0.73620439 0 0.099269733 0.64559472 -0.75720078 0.0063203811
0.044663087 0.14129174 0.73529631 0 0.12248262 0.6527279 -0.74762577 0.0072567519
0.047566891 0.14069241 0.73452783 0 0.13471173 0.66251624 -0.73683435 0.0061230185
0.054374903 0.14111882 0.7334916 0 0.16354285 0.66917276 -0.72488737 0.0063626114
0.059516862 0.14018559 0.73441082 0 0.17488363 0.67848027 -0.71349853 0.0066894507
0.063961163 0.13992292 0.73420197 0 0.17392653 0.68018556 -0.7121076 0.0070399647
0.068197057 0.13866723 0.73454684 0 0.15289785 0.69791132 -0.69967288 0.0068187541
0.074135765 0.13793385 0.73346943 0 0.14658187 0.70359135 -0.69532216 0.0060763378
0.08081679 0.13710874 0.73225743 0 0.12936106 0.72185421 -0.67984718 0.0058276304
0.082301468 0.1369254 0.73198807 0 0.11525897 0.7230621 -0.68109965 0.0054157949
0.24190499 0.11710757 0.70076734 0 -0.86704761 0.1736007 -0.46700239 0.045274701
0.24288775 0.11493599 0.70067203 0 -0.88348973 0.14001042 -0.4470382 0.035843533
0.019222528 0.14909893 0.73493433 0 0.10846861 0.58857071 -0.80113608 0.0077505
0.024426207 0.14791119 0.7345165 0 0.10330079 0.61276084 -0.78348774 0.0042037498
0.030026488 0.14612931 0.73455286 0 0.083206356 0.62136501 -0.77909058 0.0041995049
0.034813151 0.1460101 0.7343666 0 0.080585301 0.62868935 -0.77346998 0.0049586217
0.039509982 0.14537984 0.73432136 0 0.10062707 0.63666195 -0.76454943 0.0053628311
0.044767529 0.14505261 0.73368877 0 0.13062727 0.64476264 -0.75313854 0.006264891
0.049101099 0.14403486 0.73242038 0 0.15361516 0.64996469 -0.74427706 0.0060001076
0.054443851 0.14401895 0.73209363 0 0.16888548 0.65095472 -0.74009168 0.0053366115
0.058331117 0.14426309 0.73211139 0 0.17524265 0.65415174 -0.73578233 0.0066071851
0.24201854 0.12085402 0.69806516 0 -0.90410709 0.10724508 -0.413629 0.026333623
0.24263723 0.12005478 0.6958065 0 -0.9286356 0.066310838 -0.36501899 0.013045777
