# .PCD v0.7 - Point Cloud Data file format
VERSION 0.7
FIELDS x y z rgb normal_x normal_y normal_z curvature
SIZE 4 4 4 4 4 4 4 4
TYPE F F F F F F F F
COUNT 1 1 1 1 1 1 1 1
WIDTH 570
HEIGHT 1
VIEWPOINT 0 0 0 1 0 0 0
POINTS 570
DATA ascii
0.25777885 -0.0085106669 0.66700006 0 -0.98888952 -0.1474342 -0.018988376 0.002918272
-0.20338117 -0.0024200003 0.66860002 0 0.97826105 0.1396966 -0.15326463 0.0037061931
0.25702065 -0.0019104764 0.6680001 0 -0.99216318 -0.11991198 -0.035119947 0.0039328039
-0.20360573 0.0038057147 0.66600001 0 0.97677279 0.13877149 -0.16327079 0.0038314427
0.2560662 0.001909524 0.6680001 0 -0.99355125 -0.10983031 -0.028165171 0.0039838711
-0.20375858 0.0076180957 0.66650003 0 0.97555035 0.14252634 -0.16729559 0.0045216144
0.25473049 0.0069876197 0.66700006 0 -0.99217165 -0.12081962 -0.031592879 0.0040254989
0.25600097 0.0057171434 0.66700006 0 -0.99216425 -0.12050739 -0.03298695 0.0041183461
-0.20518191 0.014610477 0.66700006 0 0.97280967 0.15587194 -0.17130466 0.0039156093
-0.20446882 0.012064525 0.66675001 0 0.97318417 0.15187219 -0.17276452 0.0042339582
0.25373173 0.012417961 0.66628575 0 -0.9939152 -0.10465378 -0.034352057 0.0038994804
-0.20597002 0.019707143 0.66750002 0 0.97110885 0.15927075 -0.17770928 0.0039722282
0.25347263 0.018272171 0.66666669 0 -0.99349761 -0.10935935 -0.031670004 0.0033138103
-0.20612839 0.022508575 0.6676001 0 0.97144359 0.16180332 -0.17354266 0.0042974455
0.2537978 0.022931749 0.66677779 0 -0.99165934 -0.12648337 -0.024775846 0.0036418019
-0.20566778 0.027902065 0.66583335 0 0.97094852 0.16506156 -0.1732443 0.0040855287
-0.20487429 0.027908575 0.66600001 0 0.97081327 0.16660373 -0.17252499 0.0043168869
0.24964859 0.028585717 0.66700006 0 -0.99043751 -0.13605876 -0.022842402 0.0037917905
0.25189269 0.027793398 0.66706252 0 -0.9907558 -0.13383912 -0.022135848 0.0037888824
-0.20701452 0.032820001 0.66700006 0 0.97068954 0.16100025 -0.17843997 0.0041902107
-0.20452288 0.032494288 0.66900003 0 0.97119647 0.16032463 -0.17627665 0.0039583626
0.24964859 0.031761907 0.66700006 0 -0.99010563 -0.13961986 -0.014040567 0.0045499145
0.25146374 0.033387013 0.66600007 0 -0.98886144 -0.14805795 -0.015230735 0.0044566989
-0.21090001 0.03736667 0.66500002 0 0.97796863 0.1325447 -0.16127357 0.0034960043
-0.20934318 0.037348889 0.66722226 0 0.97587341 0.13115157 -0.17455749 0.0038961517
0.25158769 0.037111431 0.66663641 0 -0.99116766 -0.13230996 -0.0089808712 0.0049065906
0.25523335 0.036100004 0.66500002 0 -0.99007028 -0.13974707 -0.015217938 0.0045542759
-0.20863505 0.042322017 0.66766673 0 0.97854084 0.11970168 -0.16771798 0.0033886817
0.24964859 0.04383143 0.66700006 0 -0.99536651 -0.096065216 -0.0041128807 0.0054094535
0.25103536 0.042768482 0.6663 0 -0.99424022 -0.10683622 -0.0085088089 0.0052367328
-0.20846002 0.045759052 0.66733348 0 0.97900397 0.11163247 -0.1705559 0.0039058309
0.24894534 0.047303434 0.66580003 0 -0.99495065 -0.10025838 -0.0046346136 0.0062318523
0.25048333 0.047183335 0.66500002 0 -0.99464947 -0.10306871 -0.0070249122 0.0059387572
-0.21133444 0.052675836 0.66637498 0 0.98038393 0.1043165 -0.16722845 0.0043423744
0.24890001 0.050033338 0.66500002 0 -0.99465746 -0.10236105 -0.013371624 0.006227952
0.25080001 0.050033338 0.66500002 0 -0.99467254 -0.10213063 -0.013993738 0.0063672476
-0.21097644 0.057509288 0.66725004 0 0.98098725 0.10296085 -0.16450886 0.0049223937
-0.21146896 0.06330096 0.66600007 0 0.9835785 0.11018696 -0.14294119 0.0039862311
-0.20970215 0.06332358 0.66825008 0 0.98125118 0.11726388 -0.15295532 0.0044238921
0.24885081 0.063639998 0.66600007 0 -0.99469483 -0.1001033 -0.023694398 0.0064372844
0.25039715 0.06180286 0.66900003 0 -0.9950822 -0.095182315 -0.027418392 0.0061803828
-0.21155915 0.067030564 0.66608334 0 0.98311603 0.11531147 -0.14207736 0.0038909654
-0.20881251 0.067623496 0.66777784 0 0.98236579 0.12105237 -0.14249137 0.0038849104
0.24916916 0.067147814 0.66640007 0 -0.99431765 -0.10245555 -0.028901692 0.0067009004
0.25054288 0.067868575 0.66600001 0 -0.99483055 -0.097427398 -0.028636914 0.0069011878
-0.21195577 0.072343692 0.66593337 0 0.98365998 0.1144403 -0.13898359 0.0036322693
-0.20909336 0.072314292 0.6680001 0 0.98273414 0.11381705 -0.14587432 0.0035332637
0.24833278 0.071188383 0.66620004 0 -0.99353504 -0.11140531 -0.021843173 0.0060191974
-0.21175881 0.077358924 0.66657144 0 0.98226702 0.1189407 -0.14492969 0.0042093247
0.24710764 0.079404764 0.66700006 0 -0.99156874 -0.12844481 -0.017124601 0.0047633308
-0.21230276 0.082528986 0.6665715 0 0.97903728 0.12738445 -0.15893106 0.005063022
0.24625222 0.082858898 0.66583335 0 -0.99204987 -0.12579474 0.0035625456 0.0047964719
-0.21502288 0.089434288 0.66600001 0 0.97899598 0.11767678 -0.16649038 0.0053227604
-0.21351762 0.087153576 0.66675001 0 0.97758633 0.12356047 -0.17046344 0.005768043
0.24447501 0.08763025 0.66675001 0 -0.99322182 -0.11616852 -0.0039161537 0.0047779195
0.24519217 0.087432146 0.66525 0 -0.99339944 -0.11470659 8.9599773e-05 0.0047174189
-0.21599144 0.091111436 0.66900003 0 0.9777562 0.12009536 -0.17195885 0.0053978642
0.24438335 0.092673816 0.66650003 0 -0.99364305 -0.11224212 0.0086624622 0.0043249903
0.24518001 0.092309147 0.66660005 0 -0.99478477 -0.10195775 0.0028130298 0.004729257
-0.21534573 0.095920958 0.66700006 0 0.98003614 0.11606243 -0.16142707 0.0049002594
0.24383335 0.096900009 0.66500002 0 -0.99487215 -0.10113522 -0.00097718975 0.0045898231
0.2424178 0.10365271 0.66633338 0 -0.99143976 -0.13014127 -0.01051165 0.0041558184
-0.21756001 0.10909715 0.66600001 0 0.9762091 0.13156842 -0.17235279 0.0045848219
0.24259844 0.10603017 0.6680001 0 -0.98985255 -0.13923 -0.028405989 0.0045853262
-0.21700618 0.11294381 0.66624999 0 0.97554052 0.12723409 -0.17925428 0.0052207178
0.2421467 0.1124927 0.66733336 0 -0.9898448 -0.13867818 -0.031234229 0.0041182283
-0.21741383 0.11760715 0.66750002 0 0.98186147 0.093109153 -0.16516237 0.0063690897
0.24140385 0.11775621 0.66628575 0 -0.98944914 -0.13931121 -0.039785378 0.0042628287
-0.21841845 0.12223619 0.66733336 0 0.98350108 0.049272235 -0.17406294 0.0068178605
0.24148005 0.12266815 0.66630769 0 -0.99024194 -0.130375 -0.049225718 0.0048128539
-0.22103335 0.12983334 0.66500002 0 0.98180616 -0.047971264 -0.18372633 0.012114152
-0.21914525 0.12812525 0.66600001 0 0.98279077 -0.034270804 -0.1815156 0.011386973
0.23867933 0.12755661 0.6672858 0 -0.99022663 -0.12556019 -0.060712196 0.0045487741
0.24025621 0.12695049 0.66649997 0 -0.99025571 -0.12536393 -0.060642589 0.004485941
-0.22215927 0.13292964 0.66500002 0 0.97691298 -0.099523388 -0.18904015 0.01424007
-0.21939072 0.13207881 0.66675007 0 0.9737224 -0.12328161 -0.19148463 0.016714599
0.23915105 0.13300286 0.66820014 0 -0.98860115 -0.13968374 -0.056181353 0.0050569
0.24027035 0.13167128 0.66683334 0 -0.98889261 -0.13788836 -0.055480525 0.0049667391
-0.22103971 0.13667969 0.66544443 0 0.95975661 -0.19436088 -0.20270941 0.019398093
-0.21927905 0.13750915 0.66660005 0 0.94383931 -0.25430515 -0.21094127 0.025735274
0.2388759 0.13883144 0.66766679 0 -0.98925608 -0.13892695 -0.045515407 0.0050720982
0.24066317 0.13735744 0.66710001 0 -0.98794782 -0.14657716 -0.049741 0.0054632542
-0.21794105 0.14242764 0.6668182 0 0.89499903 -0.38402468 -0.22694001 0.029300598
0.23867705 0.14252974 0.66711122 0 -0.98783493 -0.14661536 -0.051827658 0.004475337
0.24039429 0.14271429 0.66600001 0 -0.98782349 -0.14799248 -0.04798973 0.0043194918
-0.21657525 0.14633526 0.66644448 0 0.83832556 -0.49778244 -0.22231275 0.031236403
-0.21415357 0.14901835 0.66725004 0 0.7458837 -0.6285758 -0.22034077 0.03198782
0.23753558 0.14663568 0.66588885 0 -0.98802173 -0.14708765 -0.046672456 0.0043058298
0.24003334 0.14503334 0.66500002 0 -0.98769271 -0.15005639 -0.04411412 0.0043025124
-0.21153355 0.15156744 0.667 0 0.67217207 -0.71163285 -0.20436117 0.026501834
-0.20793238 0.15356584 0.66722232 0 0.59479392 -0.78152591 -0.18824814 0.022269148
-0.20388573 0.15482572 0.66900003 0 0.49202788 -0.84962851 -0.18984187 0.01703009
0.23567335 0.15055144 0.66700006 0 -0.98801059 -0.14604005 -0.050073609 0.0047369548
-0.20635876 0.15566668 0.66533339 0 0.52443242 -0.8316403 -0.1826064 0.018037401
-0.2031993 0.15621024 0.66675007 0 0.48213273 -0.85777438 -0.17824516 0.017598027
-0.19677478 0.15847826 0.66650003 0 0.29190347 -0.94491488 -0.14808182 0.011289447
-0.19271621 0.15879729 0.66657144 0 0.21329641 -0.96828902 -0.13008091 0.0095063979
-0.18818609 0.15899944 0.66620004 0 0.15516233 -0.97955239 -0.12806976 0.0069980626
-0.18031144 0.15992287 0.66900003 0 0.10417975 -0.9849872 -0.13764735 0.0044637616
-0.17840001 0.15992287 0.66900003 0 0.089747205 -0.98429936 -0.15198797 0.0040685772
-0.19570002 0.16023335 0.66500002 0 0.26120204 -0.95583063 -0.13476372 0.0096901646
-0.19240668 0.16048668 0.66500002 0 0.20407699 -0.97171974 -0.11879966 0.0089473547
-0.18746668 0.16023335 0.66500002 0 0.14975677 -0.98023355 -0.12928669 0.0064230198
-0.18217644 0.1615462 0.66649997 0 0.10979377 -0.98408765 -0.13970253 0.0044870465
-0.1778805 0.16151269 0.66609997 0 0.08786685 -0.98520106 -0.14716768 0.0040213009
-0.17400509 0.16089652 0.66600007 0 0.085172787 -0.98523986 -0.14848587 0.0040556747
-0.16763692 0.16065502 0.66675007 0 0.10163663 -0.98270345 -0.15480268 0.0038631402
-0.16156223 0.16113874 0.66700006 0 0.1189976 -0.98240024 -0.14397678 0.003876393
-0.15753859 0.16230239 0.66700006 0 0.12316196 -0.98342985 -0.13302897 0.0037160253
-0.15436287 0.1632562 0.66700006 0 0.12912585 -0.98377442 -0.12455706 0.0036761332
-0.1463 0.16403334 0.66500002 0 0.13689288 -0.98214388 -0.12904978 0.0044761687
-0.14229333 0.16452667 0.66700006 0 0.11742321 -0.97974652 -0.16219915 0.0051179095
-0.13614571 0.1641362 0.66800004 0 0.12911485 -0.97712654 -0.16897683 0.0051794145
-0.13212952 0.16452667 0.66700006 0 0.12097389 -0.97612995 -0.18037619 0.0060010292
-0.12895334 0.16452667 0.66700006 0 0.12759256 -0.97680372 -0.17197254 0.0071325372
0.2368536 0.16287787 0.66675001 0 -0.99062836 -0.13384959 -0.027200157 0.0061754058
-0.14581905 0.16528954 0.66666669 0 0.12429227 -0.98127681 -0.14713009 0.0049128872
-0.1427705 0.16598216 0.66775006 0 0.11379169 -0.98100507 -0.15710057 0.0051270537
-0.13790581 0.16627382 0.66790003 0 0.13195674 -0.97650796 -0.1703513 0.0053898501
-0.13321112 0.16572224 0.66500002 0 0.12975816 -0.9779588 -0.1635834 0.0050726091
-0.12802811 0.1654243 0.66549999 0 0.12574801 -0.97854406 -0.16321436 0.0072058728
-0.12114858 0.16681716 0.66600001 0 0.11815082 -0.9831261 -0.13965496 0.0075906543
-0.10956667 0.16783334 0.66500002 0 0.12875079 -0.98316079 -0.12968513 0.0070185899
-0.09620858 0.16884287 0.66900003 0 0.089411475 -0.99081433 -0.1014519 0.0071301856
-0.093660004 0.16884287 0.66900003 0 0.084536038 -0.99023736 -0.11083132 0.0065370752
0.23334651 0.167533 0.66563636 0 -0.98937047 -0.14390343 -0.020927109 0.0055113449
0.23585001 0.16528429 0.66750002 0 -0.99073046 -0.13435821 -0.02003043 0.0054255496
-0.1149781 0.17214954 0.66700006 0 0.12357941 -0.98191124 -0.1434522 0.0072099548
-0.10066858 0.17011715 0.66900003 0 0.11337348 -0.98656994 -0.11758496 0.0084570982
-0.097679056 0.17128858 0.66860008 0 0.093292639 -0.99040163 -0.10198557 0.0068040192
-0.092982002 0.17087793 0.66745454 0 0.077146776 -0.99092454 -0.11007678 0.0056848107
-0.088666677 0.17036667 0.66500002 0 0.09897089 -0.98695946 -0.12694873 0.0044127684
-0.070722863 0.17266573 0.66900003 0 0.11167809 -0.98616284 -0.12251896 0.0049021719
-0.067108974 0.17333882 0.66791672 0 0.10935923 -0.98755747 -0.11300826 0.0053470666
-0.063937619 0.17399667 0.6680001 0 0.11459796 -0.98739773 -0.10914693 0.0058487081
-0.051390003 0.1738373 0.66616672 0 0.12894477 -0.98781645 -0.087131657 0.0066373744
-0.048043177 0.17417842 0.66666669 0 0.11903241 -0.98959571 -0.080818646 0.0080253556
0.2330886 0.17222765 0.6656667 0 -0.98524034 -0.17035055 -0.016799694 0.0076207453
-0.06663271 0.17578509 0.66633338 0 0.11055318 -0.9871273 -0.11557621 0.0060307016
-0.06188985 0.17571208 0.66766667 0 0.10806611 -0.98798472 -0.11048935 0.0068028141
-0.057773527 0.17636134 0.66660005 0 0.11678728 -0.98711789 -0.10935737 0.008534098
-0.052239459 0.17608954 0.66542858 0 0.12431059 -0.98657209 -0.10593601 0.0079913726
-0.04550159 0.17544827 0.66666669 0 0.11035974 -0.99111277 -0.074271731 0.009505746
-0.042863093 0.17557643 0.66675001 0 0.10955782 -0.99070519 -0.080624208 0.0092994487
-0.038386907 0.17766692 0.66624999 0 0.12475863 -0.98864615 -0.0837503 0.0084618507
-0.032828733 0.17854558 0.66716665 0 0.13375343 -0.98639017 -0.095626287 0.0075064395
-0.029900953 0.17940477 0.66800004 0 0.14317881 -0.98572326 -0.088597529 0.006514146
-0.013092381 0.17835486 0.66740006 0 0.10616446 -0.99165708 -0.073113047 0.0074489038
0.23359129 0.17709953 0.66650003 0 -0.97635716 -0.21605897 -0.0067425603 0.011671523
-0.011439683 0.18240255 0.66733348 0 0.10078404 -0.99267077 -0.066689938 0.0078718029
-0.0089200009 0.18286002 0.66900003 0 0.1177468 -0.99177563 -0.050167207 0.0074808002
0.017662315 0.18286696 0.66571426 0 0.083966963 -0.99226737 -0.091404617 0.0098557165
0.23370002 0.18430001 0.66500002 0 -0.93966866 -0.33033514 -0.088890947 0.018684683
0.014654287 0.18540858 0.66900003 0 0.071214743 -0.99103808 -0.11301307 0.0086764432
0.037376739 0.18634084 0.66842866 0 0.10315731 -0.99234366 -0.067916214 0.0078601614
0.043962859 0.18795715 0.66900003 0 0.12023688 -0.99078637 -0.062333342 0.0094150789
0.051107623 0.18756631 0.66580003 0 0.12898216 -0.98634952 -0.10236347 0.010492331
0.07241714 0.18993621 0.66700006 0 0.13644835 -0.98560655 -0.099808246 0.0067166896
0.077018738 0.18946636 0.66833341 0 0.1496512 -0.98318619 -0.10464013 0.0067261015
0.22932097 0.18993621 0.66700006 0 -0.82979488 -0.54301411 -0.12874879 0.030764351
0.23179002 0.18746263 0.66725004 0 -0.90000921 -0.42310715 -0.10470843 0.027901018
0.069448575 0.19050573 0.66900003 0 0.13315773 -0.98559755 -0.10424187 0.0070430934
0.072227381 0.19070502 0.66525 0 0.14014386 -0.98603934 -0.089923576 0.0060913553
0.075826675 0.19157335 0.66533339 0 0.14618675 -0.98517483 -0.089776307 0.0060198889
0.089434288 0.19218859 0.66600001 0 0.085612655 -0.98873562 -0.1227693 0.0091029173
0.09265846 0.19293039 0.66637504 0 0.10102215 -0.98676324 -0.12685749 0.009026546
0.097076833 0.19372764 0.66766679 0 0.12329541 -0.98225343 -0.14133829 0.012081471
0.10130572 0.19432859 0.66900003 0 0.15627857 -0.96734971 -0.19952886 0.012904559
0.2290332 0.1926605 0.66616666 0 -0.75221145 -0.64766484 -0.12127765 0.024100086
0.099097148 0.19501811 0.66700006 0 0.14590786 -0.97764236 -0.15141428 0.01148241
0.10163809 0.19501811 0.66700006 0 0.1627849 -0.96914047 -0.18511577 0.01393683
0.12768286 0.19882953 0.66700006 0 0.094225086 -0.98456621 -0.14748175 0.0084562721
0.13318411 0.1989128 0.66728574 0 0.088665336 -0.98603922 -0.14094312 0.0064371875
0.1378962 0.19747262 0.66725004 0 0.07737875 -0.98648924 -0.14440095 0.0061346842
0.14105731 0.19646558 0.66616666 0 0.069669574 -0.98678434 -0.14629635 0.007380818
0.15833348 0.1985735 0.66614288 0 0.11337368 -0.98135573 -0.15520093 0.0063283457
0.1620701 0.19921349 0.66585714 0 0.10707662 -0.98243189 -0.15284719 0.0066004018
0.16935429 0.19980001 0.66600001 0 0.10716138 -0.98385739 -0.1433215 0.0060039423
0.17189145 0.19980001 0.66600001 0 0.10577782 -0.9823333 -0.1543771 0.0054772231
0.2234913 0.19851637 0.66666669 0 -0.60244894 -0.78496742 -0.14450411 0.023298753
0.22658546 0.19611906 0.66642857 0 -0.68449152 -0.71659213 -0.13404185 0.02509764
0.13188858 0.20070001 0.66900003 0 0.087794542 -0.98564887 -0.14418255 0.0069065909
0.15746073 0.20154285 0.66600001 0 0.10533755 -0.98236161 -0.15449814 0.0063735764
0.16251336 0.20102 0.66500002 0 0.10955305 -0.98173434 -0.15554991 0.0065990957
0.16960858 0.20200573 0.66700006 0 0.10525287 -0.98403764 -0.1434979 0.006067025
0.17232792 0.20188029 0.66628569 0 0.10963006 -0.98162746 -0.15616912 0.0053835097
0.17663562 0.20159793 0.66860008 0 0.11416966 -0.98162055 -0.15292612 0.0050348188
0.18327431 0.2020705 0.66680002 0 0.1088514 -0.98174024 -0.15600453 0.0047659678
0.18775745 0.20209485 0.66700006 0 0.10473491 -0.98165852 -0.15930262 0.0053953584
0.19443335 0.20330001 0.66500002 0 0.060269505 -0.98369312 -0.16945633 0.005100335
0.19814365 0.20423506 0.66640007 0 0.014083963 -0.98509371 -0.17144054 0.006654311
0.20252538 0.20443085 0.66662502 0 -0.062945612 -0.98363876 -0.16879745 0.011477805
0.20692907 0.20375858 0.66650003 0 -0.15405609 -0.97461832 -0.16243699 0.017793564
0.21470001 0.20330001 0.66500002 0 -0.36827409 -0.91975504 -0.13573787 0.023796132
0.21798058 0.2027256 0.6672858 0 -0.45204654 -0.88305354 -0.12597705 0.025798496
0.22152239 0.20138453 0.66600001 0 -0.53953034 -0.82888025 -0.14786685 0.021174572
-0.16590478 -0.16526668 0.67000002 0 0.6891138 0.71307486 -0.12902057 0.011218801
-0.16307795 -0.16627666 0.67149997 0 0.62925911 0.7649051 -0.13767025 0.010698183
-0.17088 -0.16256002 0.67200005 0 0.74853951 0.64540964 -0.15210195 0.013050175
-0.16654287 -0.16399048 0.67000002 0 0.71112949 0.69064105 -0.13156714 0.011494126
-0.17834669 -0.15637335 0.67200005 0 0.82620478 0.5464949 -0.13685356 0.016777091
-0.18091787 -0.15214929 0.67124999 0 0.86451697 0.47984537 -0.14952838 0.017844114
-0.1792745 -0.1531705 0.67180008 0 0.85147375 0.50691921 -0.13425881 0.018287562
-0.18185957 -0.14757895 0.67211115 0 0.90826041 0.38720453 -0.15854269 0.016289361
-0.18260357 -0.14223596 0.67275 0 0.9491058 0.26899329 -0.16383144 0.012646626
-0.18309748 -0.13652097 0.67300004 0 0.97168988 0.16104876 -0.17286435 0.0056965565
-0.18254669 -0.13240115 0.67160004 0 0.97733247 0.13153732 -0.1658891 0.0041667642
-0.18568572 -0.12570477 0.67000002 0 0.97658247 0.12573412 -0.17457844 0.0021800373
-0.18434986 -0.12638097 0.67133331 0 0.97785014 0.12318802 -0.16921559 0.0023968178
-0.18448307 -0.12234934 0.67120004 0 0.97788209 0.12678133 -0.16635232 0.0028283112
-0.1859964 -0.11706115 0.67020005 0 0.97783214 0.13121246 -0.16317965 0.0025937657
-0.18401408 -0.11777303 0.67166668 0 0.97704613 0.13538036 -0.16447783 0.0029103367
0.23928574 -0.11549524 0.67000002 0 -0.2559886 0.95835185 -0.12661573 0.017124582
0.24265811 -0.11558144 0.67050004 0 -0.29871136 0.94545782 -0.12992664 0.016686143
-0.18694834 -0.11300096 0.67224997 0 0.97867233 0.13897857 -0.15127905 0.0033254621
-0.18445668 -0.1140043 0.67250001 0 0.97776324 0.13820498 -0.15772915 0.0035655126
0.24271895 -0.11391403 0.67142856 0 -0.37142628 0.91971421 -0.12715501 0.021204289
0.2472944 -0.11314799 0.67312503 0 -0.46148732 0.87204653 -0.16298583 0.030547224
0.25098479 -0.11233334 0.67400002 0 -0.47701806 0.86132675 -0.1748426 0.032228369
-0.18850085 -0.10721916 0.67144448 0 0.97624886 0.14086564 -0.16460572 0.0033449708
-0.18813051 -0.10242519 0.67157149 0 0.97381568 0.14840882 -0.17221436 0.0044439887
-0.18897811 -0.097209051 0.67150003 0 0.97165519 0.14826998 -0.18412571 0.0051378724
-0.19057763 -0.090812385 0.67149997 0 0.97033578 0.1498919 -0.18968651 0.0052629746
-0.18906204 -0.092655249 0.6722858 0 0.96970034 0.14766844 -0.19461566 0.0049632611
-0.19050644 -0.088221677 0.67125005 0 0.97213805 0.15017237 -0.17998861 0.0052497205
-0.18912683 -0.08719255 0.67316669 0 0.9706291 0.14641801 -0.19089496 0.004993903
-0.19008002 -0.081280008 0.67200011 0 0.97468787 0.13121347 -0.18101574 0.0048534269
-0.18936706 -0.083350293 0.67220002 0 0.97130573 0.14382413 -0.18941979 0.0047869678
-0.19103114 -0.077102579 0.67130005 0 0.97355092 0.14277302 -0.17836587 0.0052329535
-0.18936191 -0.07702858 0.67400002 0 0.97162974 0.14329129 -0.18815765 0.0045450102
-0.19199906 -0.072960004 0.67199999 0 0.97069579 0.15666115 -0.18222761 0.0048365779
-0.19239073 -0.06882596 0.67225003 0 0.96964848 0.15616091 -0.1881371 0.0043360218
-0.19292668 -0.064096197 0.67300004 0 0.97043812 0.14226851 -0.19496028 0.0042810086
-0.19589525 -0.055514291 0.67000002 0 0.97103763 0.13398629 -0.19782232 0.0033452066
-0.19418445 -0.057479687 0.67144448 0 0.96888709 0.1415025 -0.20306374 0.0039282087
-0.19597214 -0.052765038 0.67214286 0 0.9715054 0.12949204 -0.1985175 0.0034023023
-0.19618763 -0.047290482 0.671 0 0.97718334 0.11441388 -0.17894705 0.0030967554
-0.19611453 -0.04216167 0.67075002 0 0.97913504 0.11485782 -0.16763712 0.0028346791
-0.1971181 -0.035840005 0.67200005 0 0.98035395 0.11606331 -0.15948497 0.0028239663
0.26176003 -0.035200004 0.67200005 0 -0.99162036 -0.11905883 -0.05014224 0.0038443324
-0.19726954 -0.032559052 0.67033339 0 0.98189837 0.11366665 -0.15151115 0.0024536781
0.26073563 -0.032384384 0.67200005 0 -0.99037206 -0.1306002 -0.045898482 0.0033450045
-0.197245 -0.028086906 0.67025 0 0.98322159 0.11198583 -0.14399442 0.0017825164
-0.19782488 -0.022784024 0.6707778 0 0.98239636 0.11865108 -0.14428863 0.0022607904
-0.19851668 -0.017640479 0.67110002 0 0.98153669 0.12418558 -0.14547807 0.0025738257
0.25842857 -0.015952382 0.67000002 0 -0.98815405 -0.15135014 -0.025392223 0.0027623868
-0.20067398 -0.012556508 0.67033339 0 0.98044121 0.13217834 -0.14582159 0.0029104247
-0.19913663 -0.012639309 0.67272729 0 0.98109287 0.1226569 -0.14970639 0.0032340961
0.25749668 -0.012777999 0.67090005 0 -0.98782331 -0.15363318 -0.024533082 0.0025284728
-0.20086777 -0.0076646437 0.67062503 0 0.97912794 0.13338493 -0.15335239 0.0034909847
-0.19920447 -0.0092006363 0.67400002 0 0.97995752 0.12711284 -0.15337993 0.0032552651
0.25749293 -0.0074666664 0.67199999 0 -0.98864365 -0.14929582 -0.017163057 0.0026440085
-0.20177241 -0.0028259868 0.67014295 0 0.97815323 0.1359652 -0.15725695 0.0038128814
0.2548362 -0.0012838097 0.67400002 0 -0.99260551 -0.12130485 -0.0043978337 0.0036233687
0.25623575 -0.002345873 0.67149997 0 -0.99273401 -0.1190334 -0.017616469 0.004274792
-0.20313726 0.0027711114 0.67144448 0 0.97798073 0.13924679 -0.15544751 0.0035088987
0.25433525 0.0011523812 0.67200005 0 -0.9935838 -0.11053793 -0.023931593 0.004068851
0.25610811 0.0034096828 0.67116666 0 -0.99353558 -0.11159626 -0.020819705 0.0041139391
-0.20226562 0.0078036198 0.67166674 0 0.97803628 0.13389717 -0.15973906 0.00428499
0.25463209 0.0066155563 0.67233342 0 -0.99295044 -0.11838189 -0.0059280982 0.0044112867
0.2556181 0.0057514291 0.671 0 -0.99284184 -0.11857115 -0.014353081 0.0041183946
-0.20250885 0.012937726 0.67172223 0 0.97686028 0.14186408 -0.16005836 0.0041795918
-0.2056815 0.017620545 0.67100012 0 0.97240502 0.15771481 -0.17191432 0.0036272935
-0.20349756 0.016541334 0.67320007 0 0.97496641 0.14424013 -0.16921955 0.0041525774
0.25242382 0.019810477 0.671 0 -0.99327189 -0.11413978 -0.019576605 0.0032233912
-0.20561066 0.023011906 0.67116666 0 0.97078377 0.15880029 -0.1798923 0.0044196695
0.25286382 0.022904899 0.67071432 0 -0.99267292 -0.11946943 -0.018096544 0.0033246411
-0.20462887 0.028397555 0.67114294 0 0.97003788 0.16423993 -0.17902967 0.0043248413
-0.2057724 0.032589525 0.671 0 0.97131884 0.16011499 -0.17579161 0.0041114432
-0.20784384 0.037091669 0.67150003 0 0.9737345 0.14012125 -0.17946374 0.0036868309
0.25084254 0.038575877 0.67133343 0 -0.99246287 -0.12248756 0.0037681565 0.0055636149
-0.20831905 0.041280955 0.67200005 0 0.97624171 0.11789844 -0.18180215 0.0041785734
0.25075048 0.042113531 0.67200011 0 -0.99435896 -0.10597568 0.0044069057 0.0057506012
-0.21072811 0.048530959 0.67050004 0 0.9799394 0.10851588 -0.16716172 0.0044754501
-0.20960668 0.04920667 0.671 0 0.98010635 0.10897388 -0.16588029 0.0045132441
0.24944161 0.047076516 0.671 0 -0.99375999 -0.11136803 0.0061726444 0.0063323635
0.25024003 0.045440003 0.67200005 0 -0.99479622 -0.10182024 0.0036354545 0.0061868606
-0.21088859 0.052138101 0.67033339 0 0.9816227 0.11005488 -0.15589954 0.004501577
-0.20921786 0.052320179 0.67218184 0 0.98021483 0.11046866 -0.16424245 0.004875605
0.25061241 0.051277146 0.67300004 0 -0.99390537 -0.11021878 -0.0020298054 0.0070860111
-0.21056764 0.057485722 0.67066669 0 0.98073506 0.11208986 -0.15998252 0.00481155
-0.20917472 0.057631843 0.6734286 0 0.98100829 0.10485184 -0.16318379 0.004517084
0.25077143 0.059342861 0.67000002 0 -0.99383849 -0.10872824 -0.021522539 0.0066352291
-0.21072811 0.060664289 0.67050004 0 0.98132527 0.11123297 -0.15693261 0.0048698876
-0.20928001 0.060800005 0.67200005 0 0.98081577 0.1087404 -0.16179001 0.0048063574
0.24978429 0.06404905 0.67250001 0 -0.99433756 -0.10441799 -0.019739259 0.0061492031
0.25024003 0.062080003 0.67200005 0 -0.99516684 -0.094695486 -0.025993727 0.0063322713
0.24860652 0.067832991 0.67136365 0 -0.99461865 -0.10040878 -0.025530841 0.0065114503
-0.20929524 0.073380955 0.67000002 0 0.98187029 0.11039872 -0.15408704 0.0037938219
0.24720818 0.072105855 0.67171437 0 -0.99339724 -0.10998772 -0.032629412 0.0054945168
-0.21024668 0.076046668 0.671 0 0.98088002 0.11210934 -0.15907837 0.004103716
-0.21056001 0.081280008 0.67200005 0 0.98047632 0.11383892 -0.16033372 0.0048970073
0.24694288 0.081038103 0.67000002 0 -0.99216974 -0.12362365 -0.017784802 0.0044761673
-0.21408096 0.088827625 0.671 0 0.97841024 0.11541464 -0.17144331 0.0056699407
0.24439049 0.089333341 0.67000002 0 -0.99390984 -0.1098927 -0.0081788935 0.0038976856
-0.2151451 0.092570484 0.67033339 0 0.97830856 0.11647806 -0.17130429 0.0049288231
-0.21407841 0.092206351 0.67233336 0 0.97743952 0.1259257 -0.16957231 0.0049672159
0.24424362 0.092917912 0.671 0 -0.99466372 -0.10285448 -0.0080557866 0.0039247568
-0.21578448 0.097658098 0.67166674 0 0.97991198 0.11686353 -0.16160281 0.0042965668
-0.21414173 0.097011819 0.6728 0 0.97872144 0.12207139 -0.16493292 0.0042688735
0.2444489 0.0961162 0.67133331 0 -0.99342501 -0.11391845 -0.011378007 0.0040843752
-0.21595268 0.10262913 0.67171437 0 0.97963685 0.11668015 -0.16339369 0.003936741
-0.21370684 0.10301414 0.6718334 0 0.97958702 0.11666302 -0.16370419 0.0038674688
-0.21671723 0.10740025 0.67125005 0 0.9789865 0.12281212 -0.16279605 0.0042200061
-0.21369241 0.10793734 0.67299998 0 0.97981691 0.11803982 -0.1613235 0.0038058737
0.24258351 0.10783938 0.6708889 0 -0.98914504 -0.14334685 -0.032306798 0.0047902213
0.24566668 0.1078381 0.67000002 0 -0.98914272 -0.14334831 -0.032374192 0.0047323718
-0.21617587 0.11175323 0.67222226 0 0.97808975 0.11908995 -0.17075741 0.0048671486
0.24322605 0.11211365 0.67266673 0 -0.98776931 -0.15066376 -0.040152665 0.0044515855
-0.21712177 0.11796398 0.67316669 0 0.97912425 0.09035144 -0.18207765 0.0053546703
-0.21828131 0.12299322 0.67262501 0 0.98005086 0.025913982 -0.19705029 0.0084048733
0.23928574 0.12315239 0.67000002 0 -0.98910707 -0.13451077 -0.059783109 0.0045333272
0.24113488 0.12190896 0.67160004 0 -0.98767948 -0.14553159 -0.057530738 0.0048334259
-0.21778953 0.1274308 0.67193335 0 0.97923064 -0.031453773 -0.20029491 0.011731159
0.23872001 0.12864001 0.67200005 0 -0.98932147 -0.12789252 -0.069903359 0.0046740617
-0.21773231 0.13256106 0.67241669 0 0.96797055 -0.13215435 -0.2134672 0.01664605
0.23867176 0.13349526 0.67066669 0 -0.98781884 -0.1420093 -0.06361676 0.004991103
-0.21849239 0.13790058 0.67160004 0 0.93503213 -0.27802637 -0.22003682 0.02220259
0.2387905 0.13760859 0.671 0 -0.98945284 -0.13343106 -0.05638472 0.0051910868
-0.21679905 0.14271787 0.67200005 0 0.87581527 -0.41867298 -0.24012603 0.027344847
0.23831025 0.14298835 0.67175007 0 -0.98820341 -0.14414194 -0.051742643 0.0040957187
-0.21519859 0.14645049 0.67150003 0 0.81991184 -0.52293396 -0.23299064 0.028591735
-0.21407843 0.14876732 0.67233342 0 0.74876815 -0.61893815 -0.23719577 0.028947769
0.23767559 0.14755747 0.67266673 0 -0.98847198 -0.14524731 -0.04273659 0.0043752021
-0.21164668 0.15095563 0.67220002 0 0.7043736 -0.66857225 -0.23847218 0.027697185
-0.20752239 0.15313384 0.6718334 0 0.59700286 -0.77096432 -0.22181445 0.021472886
0.23814668 0.15084763 0.67400002 0 -0.99065244 -0.13400722 -0.025492202 0.004865577
-0.20164056 0.15657896 0.67166668 0 0.4140535 -0.88792044 -0.20039226 0.016725713
-0.19738553 0.15772991 0.67160004 0 0.3320002 -0.92273402 -0.19580022 0.014210897
-0.19228858 0.15895525 0.67300004 0 0.23049711 -0.95944232 -0.16230056 0.010507885
-0.18742763 0.15928096 0.67166674 0 0.14552307 -0.97882062 -0.14399056 0.0071443515
-0.18311411 0.15905583 0.67180002 0 0.11046205 -0.98380542 -0.14115566 0.0052815559
-0.17748955 0.15954973 0.6728 0 0.082274824 -0.98654944 -0.14124814 0.0044988855
0.23717454 0.15886264 0.67124999 0 -0.99068892 -0.13401164 -0.024007494 0.0062074172
-0.18322444 0.1602416 0.67033339 0 0.11217362 -0.98376417 -0.14008972 0.004919373
-0.1762462 0.16028143 0.67050004 0 0.081874423 -0.98631245 -0.14312327 0.0043832948
-0.17267145 0.16052049 0.67149997 0 0.082081847 -0.9866789 -0.14045344 0.0044544055
-0.16730715 0.16091953 0.67050004 0 0.10361367 -0.98485607 -0.13900647 0.0042508435
-0.16320001 0.16192001 0.67200005 0 0.11707613 -0.98170006 -0.15019441 0.0035669371
-0.15710382 0.16222344 0.67220008 0 0.13261099 -0.98122776 -0.14002274 0.0038514042
-0.15255758 0.16365217 0.67211109 0 0.12419927 -0.98225361 -0.14054285 0.0044435449
-0.14656003 0.16374777 0.67200005 0 0.10770191 -0.98316115 -0.14763005 0.0043256492
-0.14305539 0.16334681 0.67185718 0 0.10564636 -0.98244834 -0.15373345 0.0049575977
-0.13910477 0.16399048 0.67000002 0 0.11582842 -0.97990292 -0.16240117 0.0048637777
0.23488002 0.16448002 0.67200005 0 -0.99085647 -0.13487151 0.003601542 0.0048826486
0.23661947 0.16207917 0.6708889 0 -0.9922297 -0.12386428 -0.011747177 0.0052296771
-0.12694524 0.1659562 0.67149997 0 0.14339015 -0.9746927 -0.17150381 0.0088281911
-0.1226036 0.16643769 0.67244446 0 0.13904585 -0.97613287 -0.16682529 0.0083995014
-0.11788764 0.16678324 0.67199999 0 0.13177125 -0.97746128 -0.16494165 0.0080233896
-0.11333334 0.1672522 0.67080003 0 0.12942304 -0.98204166 -0.13727322 0.0074636075
-0.10160857 0.16934763 0.671 0 0.12569501 -0.9845733 -0.12172119 0.0088759139
-0.097587466 0.16874969 0.67116678 0 0.10715412 -0.98695159 -0.12018552 0.0099761011
-0.092091911 0.16947383 0.67150003 0 0.079296999 -0.99054843 -0.11191899 0.006263243
-0.060800005 0.16960001 0.67200005 0 0.12049276 -0.98486382 -0.12459787 0.0055506169
0.23371716 0.16602811 0.67050004 0 -0.98983383 -0.1421954 -0.003086739 0.0053309374
0.23545715 0.16526668 0.67000002 0 -0.99030513 -0.13870403 -0.0075465878 0.0053437799
-0.09050858 0.17010477 0.67400002 0 0.081400618 -0.99130952 -0.1033411 0.0043579224
-0.087383956 0.17102668 0.67114288 0 0.093231156 -0.98914558 -0.11357425 0.0046502468
-0.082554936 0.17290604 0.67283338 0 0.10064395 -0.98791867 -0.11784545 0.0043972065
-0.078418516 0.17376955 0.67257148 0 0.11692429 -0.98610312 -0.11802292 0.0047842548
-0.07125143 0.17267239 0.67400002 0 0.11245481 -0.98655289 -0.11860558 0.0049185422
-0.067693144 0.17159639 0.67180008 0 0.11448836 -0.98583907 -0.12253056 0.0052204011
-0.062353212 0.17235892 0.67100006 0 0.11663262 -0.9859426 -0.11964135 0.0062032989
-0.057727762 0.1730912 0.67242855 0 0.12758978 -0.98393732 -0.12485281 0.005599651
-0.053288408 0.17243734 0.67263633 0 0.14076516 -0.98312068 -0.11687189 0.0047460888
-0.04920667 0.17318192 0.671 0 0.12286749 -0.98887658 -0.08382573 0.0057004094
-0.056860797 0.17633352 0.67083335 0 0.12588349 -0.98738915 -0.095999807 0.0061829132
-0.05431905 0.17573811 0.671 0 0.13239639 -0.98696285 -0.091517501 0.0057516578
-0.041518733 0.17565082 0.67066669 0 0.1160882 -0.99025708 -0.076904751 0.0084392177
-0.036859527 0.17791128 0.67116678 0 0.12118836 -0.99017578 -0.069751896 0.0075281044
-0.031313337 0.1782943 0.671 0 0.14169885 -0.98664057 -0.080385938 0.0066396659
-0.028344763 0.17880827 0.67133331 0 0.14146307 -0.98634398 -0.084343396 0.0067155664
0.23342621 0.17906716 0.67150003 0 -0.96169811 -0.27410731 0.0014212594 0.014454774
-0.01084762 0.18058096 0.67000002 0 0.11173191 -0.99208373 -0.057322603 0.0077486909
-0.0081446432 0.18122703 0.67062503 0 0.1228964 -0.99067825 -0.058763474 0.0079713883
0.0092861913 0.18253383 0.67250001 0 0.08289168 -0.99175596 -0.097719684 0.0076249773
0.012955021 0.18301529 0.67246151 0 0.07318186 -0.99258435 -0.09706112 0.0074211974
0.016661748 0.18305063 0.67283338 0 0.083293565 -0.9917444 -0.097494386 0.007951133
0.027577963 0.1842528 0.6734286 0 0.1185172 -0.98857951 -0.093081556 0.0094012339
0.032063492 0.18404317 0.67333335 0 0.11738853 -0.98850733 -0.095252752 0.0088913534
0.036335759 0.18319291 0.67363626 0 0.12016761 -0.98917598 -0.084206805 0.0091033056
0.23341635 0.18276463 0.67200011 0 -0.94593769 -0.32359597 -0.022076452 0.017256638
0.027515812 0.18598174 0.67200005 0 0.12354852 -0.98628628 -0.10943074 0.0094611747
0.032205448 0.18639106 0.67057145 0 0.12431696 -0.98529118 -0.11724611 0.0083751231
0.036446355 0.18562731 0.67133343 0 0.1240347 -0.9864381 -0.10749546 0.0081991265
0.042344004 0.18740688 0.67160004 0 0.12624215 -0.98767 -0.092579007 0.010569707
0.04747184 0.18833011 0.6722858 0 0.12066106 -0.98861802 -0.089862853 0.010261922
0.051352385 0.18807811 0.67400002 0 0.1215281 -0.98764324 -0.09895318 0.0078552254
0.069708094 0.18929857 0.67150003 0 0.13015559 -0.98506451 -0.11272722 0.0079100979
0.072852068 0.18915778 0.671 0 0.13721558 -0.98435372 -0.11054306 0.0069883871
0.076301679 0.18947072 0.67325002 0 0.14138663 -0.98036438 -0.1374611 0.006955666
0.23199145 0.18742542 0.67166662 0 -0.89207911 -0.44794405 -0.059507892 0.02643053
0.068581909 0.19100288 0.67300004 0 0.1269805 -0.98435724 -0.12213442 0.0076847915
0.071040004 0.19008002 0.67200005 0 0.12679434 -0.98378193 -0.12687084 0.0077077472
0.092652202 0.19261257 0.6728 0 0.10408089 -0.98141927 -0.161194 0.0092150597
0.097395144 0.19202182 0.67133331 0 0.13438456 -0.97716326 -0.16459873 0.01106574
0.10223516 0.19232836 0.67091674 0 0.14973548 -0.96597129 -0.21089999 0.012904038
0.10809869 0.19221133 0.67162502 0 0.1561874 -0.96173584 -0.22509967 0.009537749
0.11104953 0.19449715 0.67400002 0 0.1555372 -0.9635185 -0.21780781 0.0086907512
0.22336002 0.19392002 0.67200005 0 -0.6490255 -0.75440848 -0.098150991 0.029598765
0.22754945 0.19285949 0.67177773 0 -0.72642839 -0.68050015 -0.09602724 0.028956825
0.1229522 0.19761924 0.6724 0 0.10406224 -0.982122 -0.15686737 0.0060539893
0.12761524 0.19838645 0.67249995 0 0.086427778 -0.98391211 -0.15635534 0.0072102216
0.13284932 0.19789059 0.67244446 0 0.079508357 -0.98407519 -0.15897885 0.0064004823
0.13757706 0.19601916 0.67188889 0 0.071369335 -0.98534566 -0.15492025 0.0060393307
0.14121905 0.19578096 0.67400002 0 0.077992834 -0.98506069 -0.15353358 0.0055766711
0.15720573 0.19874382 0.671 0 0.1082122 -0.98606867 -0.12632799 0.0051933322
0.21887557 0.19841652 0.67133331 0 -0.52150029 -0.84159231 -0.14057031 0.027341299
0.22230582 0.19717805 0.67075002 0 -0.60117042 -0.78929919 -0.124904 0.022923546
0.22588573 0.19589525 0.67000002 0 -0.66006285 -0.74353832 -0.10708744 0.0209543
0.12972668 0.20002192 0.671 0 0.089587219 -0.98455745 -0.15040179 0.0071471864
0.13120002 0.20032002 0.67200005 0 0.094564013 -0.9833926 -0.15490854 0.0071684639
0.15369096 0.2009805 0.671 0 0.088110648 -0.98794544 -0.12728006 0.0061499649
0.15588874 0.2012497 0.67083335 0 0.092691027 -0.98733598 -0.12874793 0.0056849248
0.17836119 0.2036112 0.67125005 0 0.10885006 -0.98265427 -0.15014073 0.0047864662
0.18194191 0.20242801 0.67220002 0 0.11147109 -0.98263222 -0.14835136 0.0054409192
0.18664001 0.20173526 0.67160004 0 0.099489965 -0.98455465 -0.14406183 0.0058712554
0.20261692 0.20453978 0.67325002 0 -0.033486139 -0.98641205 -0.16084135 0.0108254
0.20766763 0.20446382 0.67300004 0 -0.1344294 -0.97974914 -0.14839222 0.015467527
0.21344191 0.2038562 0.671 0 -0.33412051 -0.93192154 -0.14101681 0.022100469
0.21721864 0.20221587 0.6717273 0 -0.4159047 -0.90039515 -0.12771811 0.022019805
0.22030716 0.20051098 0.67050004 0 -0.51813877 -0.84554869 -0.12876216 0.022433946
-0.17628001 -0.16078287 0.67800003 0 0.77778691 0.61469209 -0.13115275 0.013382462
-0.17172055 -0.16154701 0.67699999 0 0.74016148 0.65859294 -0.13570611 0.014228405
-0.16950001 -0.16336572 0.67800003 0 0.71795571 0.68192476 -0.13970748 0.013775845
-0.17676562 -0.15705274 0.67862499 0 0.81502485 0.56319875 -0.13616763 0.011718086
-0.17360906 -0.15917826 0.67850006 0 0.76393133 0.63008529 -0.13928995 0.014747619
-0.18031716 -0.15108858 0.67700005 0 0.87977386 0.44947532 -0.15482247 0.015725348
-0.17837097 -0.15291096 0.67675006 0 0.86094338 0.48605677 -0.15008433 0.014210225
-0.18082692 -0.14775763 0.67750001 0 0.91112286 0.37918863 -0.16146532 0.01459833
-0.17912668 -0.14873335 0.67900002 0 0.89972824 0.40462855 -0.16359954 0.016045596
-0.18222223 -0.14246139 0.67822224 0 0.94434285 0.27582631 -0.1792665 0.011955447
-0.18272558 -0.13822651 0.6771667 0 0.96625954 0.1916198 -0.17211758 0.007899343
-0.18272589 -0.13220938 0.6771667 0 0.9749229 0.14505963 -0.16876945 0.0041525993
-0.18301642 -0.12767419 0.67744452 0 0.97919613 0.12526643 -0.15963484 0.0034103957
-0.18319064 -0.12284558 0.67650002 0 0.97905141 0.12891753 -0.15760274 0.0038632813
-0.18321429 -0.1157143 0.67500001 0 0.9778828 0.13541727 -0.15939692 0.0038806391
-0.18723544 -0.11105487 0.67559999 0 0.97727358 0.14126532 -0.15805222 0.0035641179
-0.18397114 -0.11261874 0.67700005 0 0.97492856 0.14547582 -0.16837795 0.0039990088
0.24767931 -0.11222833 0.67724997 0 -0.45188662 0.84210181 -0.29438591 0.03926241
0.25192073 -0.11207262 0.67825001 0 -0.47195813 0.8168273 -0.33173594 0.041735213
0.25505716 -0.11300001 0.67800003 0 -0.49229258 0.83406085 -0.24897926 0.033765275
-0.18659481 -0.10795326 0.67581826 0 0.97884321 0.13774106 -0.15130563 0.0036658987
-0.18453667 -0.10904525 0.67750001 0 0.97570741 0.14321931 -0.16578048 0.0036464883
0.26207316 -0.1064196 0.67722225 0 -0.57734799 0.76289719 -0.29095912 0.040879097
-0.18779384 -0.10249 0.67683339 0 0.97861356 0.13351978 -0.15648656 0.0045755128
0.26310202 -0.10229649 0.67810005 0 -0.61117756 0.68656683 -0.39381203 0.053007323
-0.18826954 -0.097359054 0.67700005 0 0.97595739 0.13393047 -0.17195867 0.0048573948
0.26460573 -0.099790484 0.67600006 0 -0.66862893 0.66896796 -0.32468024 0.042433232
0.26589334 -0.099790484 0.67600006 0 -0.68450814 0.66174018 -0.305857 0.044703808
-0.1877605 -0.092808425 0.67516673 0 0.97182041 0.14217432 -0.18802008 0.004819029
-0.18770573 -0.087299585 0.67677778 0 0.97070581 0.1449306 -0.19163866 0.0051766001
-0.18741818 -0.082202941 0.67553854 0 0.97114313 0.1427567 -0.19105363 0.0045744227
-0.18824357 -0.077461734 0.67627281 0 0.97029734 0.13996029 -0.19731724 0.0046219793
-0.19123565 -0.07208287 0.67700005 0 0.96702272 0.1527517 -0.20379864 0.0042688297
-0.18917572 -0.073305562 0.6771667 0 0.96800792 0.14718969 -0.20321362 0.0044144653
-0.19289622 -0.067740388 0.67740005 0 0.96671122 0.14795497 -0.20875533 0.0046758456
-0.19345176 -0.061190166 0.67633337 0 0.97059518 0.13644111 -0.19831522 0.0047213188
-0.19360715 -0.058305718 0.67650002 0 0.97240233 0.13713421 -0.18875347 0.0044060065
-0.19546789 -0.051845476 0.67625004 0 0.97246212 0.13019522 -0.19330451 0.0033640615
-0.19459748 -0.054400638 0.67733335 0 0.97247469 0.13685909 -0.18858056 0.0037222891
-0.19586238 -0.047678098 0.67650008 0 0.97175717 0.13447559 -0.19391802 0.0033710888
-0.19412002 -0.046752386 0.67866671 0 0.97329688 0.13873176 -0.18288445 0.0036361951
-0.19618164 -0.042848032 0.67728579 0 0.97282505 0.14057684 -0.18398294 0.0034949617
-0.19464669 -0.043326668 0.67900002 0 0.97300488 0.13797185 -0.18500061 0.0035473867
-0.19630934 -0.036526099 0.67760003 0 0.97799468 0.11580788 -0.17353635 0.0032644516
0.26138383 -0.035496831 0.67766666 0 -0.98895365 -0.11933356 -0.087921485 0.0048342082
-0.1966361 -0.032759894 0.6774444 0 0.97836185 0.11650048 -0.17098451 0.0034345905
0.2611286 -0.032235242 0.67700005 0 -0.98835611 -0.12840377 -0.081637397 0.0044813287
0.26086861 -0.029057145 0.67800003 0 -0.98691714 -0.13957533 -0.080704786 0.0040743067
0.25631857 -0.012259048 0.67750001 0 -0.98876268 -0.14370626 -0.041194342 0.0029462823
-0.20071954 -0.0057900008 0.67550004 0 0.97750133 0.14069578 -0.1571492 0.0031863728
-0.19925858 -0.0070804763 0.676 0 0.97931147 0.12837774 -0.15642288 0.0034415268
0.25362271 -0.0073720007 0.67900002 0 -0.99072617 -0.13251251 -0.030032709 0.0040908586
0.25603145 -0.0077400012 0.6771667 0 -0.98929703 -0.14313971 -0.028328432 0.0032546252
-0.20111568 -0.0023611642 0.67611116 0 0.9773764 0.13575803 -0.16218843 0.0030974289
-0.19945216 -0.0025807144 0.67774999 0 0.97683167 0.13429031 -0.16663082 0.0033063251
0.25385463 -0.0021530162 0.67766678 0 -0.99235547 -0.12340567 0.001301822 0.0036736687
0.25601211 -0.0037718371 0.67614293 0 -0.99146563 -0.13027459 -0.0049424171 0.0036492241
-0.20123222 0.0023975761 0.67545462 0 0.9770025 0.13498333 -0.1650622 0.0031289596
-0.19952573 0.0025828574 0.67800003 0 0.97669786 0.14049117 -0.16224539 0.0032184033
0.25541884 0.0032240478 0.67725003 0 -0.99231148 -0.12376592 -7.4344665e-05 0.0036303224
-0.20047215 0.0070797624 0.67575008 0 0.97916019 0.13243027 -0.15397291 0.003457631
-0.19948858 0.0078645721 0.67699999 0 0.97845864 0.13122205 -0.15937191 0.0034785345
-0.20052096 0.011606667 0.67700005 0 0.97767103 0.13684255 -0.1594791 0.0035996146
-0.19923145 0.011606667 0.67700005 0 0.97756404 0.13506085 -0.16163827 0.0035658311
-0.20507145 0.019285716 0.67500001 0 0.9734453 0.15431471 -0.16908962 0.0041554892
-0.20351882 0.018677859 0.67625004 0 0.97494429 0.14457539 -0.16906047 0.0044162069
-0.20507145 0.022500001 0.67500007 0 0.97230673 0.15734473 -0.1728067 0.0040776953
-0.20405336 0.022070097 0.67760003 0 0.97257137 0.15465221 -0.17374599 0.0040418147
0.2535786 0.023227144 0.67750001 0 -0.99174124 -0.12609799 -0.023418311 0.0047832825
-0.20522335 0.02573286 0.67550004 0 0.97079426 0.16259032 -0.1764172 0.0039896201
-0.20499335 0.026513334 0.67900002 0 0.97114307 0.16248001 -0.17458941 0.0041100127
0.25301716 0.025108574 0.67600006 0 -0.99111348 -0.13179599 -0.017999297 0.0043222751
-0.20610762 0.033311434 0.67700005 0 0.97039461 0.14858918 -0.1904089 0.0045461231
0.25284669 0.034273334 0.67900002 0 -0.99251032 -0.119261 -0.026458263 0.0064767473
-0.20692551 0.037486568 0.67733335 0 0.97295588 0.13151318 -0.18989763 0.0041489592
0.2491543 0.039272383 0.67600006 0 -0.99374253 -0.11105632 -0.011923615 0.0059800423
0.25143677 0.037503432 0.6766001 0 -0.99403375 -0.10740487 -0.018998899 0.0063709971
-0.20843013 0.042513531 0.67840004 0 0.9736619 0.12569579 -0.19021825 0.0042926068
0.2491543 0.042489052 0.676 0 -0.99425274 -0.10619067 -0.013598292 0.0058230492
0.25062498 0.042091243 0.67580003 0 -0.99438095 -0.10541225 -0.0097372951 0.0056497981
-0.2102143 0.04821429 0.67500001 0 0.97620964 0.13304728 -0.1712108 0.0045415135
-0.20896879 0.048600767 0.67680001 0 0.97547662 0.13514364 -0.17372806 0.0048337034
0.24915318 0.048156034 0.6771667 0 -0.99397051 -0.10636039 -0.026649347 0.0069806608
0.25019491 0.047810163 0.67533338 0 -0.99394631 -0.10879025 -0.015339343 0.0067326287
-0.20864263 0.052967861 0.67825007 0 0.97815084 0.11816728 -0.17104772 0.0054977392
0.24858288 0.053095419 0.67763638 0 -0.99295968 -0.1161035 -0.023474023 0.0068207574
0.2510708 0.053412247 0.67571437 0 -0.99302161 -0.11704919 -0.014404799 0.0070361737
-0.20905572 0.057423338 0.67750001 0 0.98011279 0.10691456 -0.16717741 0.0047437199
0.24810268 0.057918467 0.67746156 0 -0.99355406 -0.11105572 -0.022737479 0.005674154
0.25134131 0.057704944 0.67527282 0 -0.99300349 -0.11631706 -0.020357942 0.0065652118
-0.20892859 0.061071433 0.67500001 0 0.98006552 0.11368857 -0.16293086 0.0048650927
0.24778232 0.062382866 0.67728573 0 -0.99453235 -0.10022246 -0.029339842 0.005750007
0.25048548 0.062058333 0.67524999 0 -0.99484479 -0.097812377 -0.026771262 0.0059883469
0.24472573 0.067154288 0.67800003 0 -0.99283016 -0.11404911 -0.035793558 0.0047726999
0.24672931 0.06699723 0.67641675 0 -0.99354184 -0.10823341 -0.034061175 0.0053773425
0.24472573 0.070382863 0.67800003 0 -0.99198478 -0.11939459 -0.041365892 0.0043404666
0.24629653 0.070924446 0.67700005 0 -0.99200702 -0.12022589 -0.038309876 0.0042856308
-0.21197002 0.083758578 0.67650002 0 0.98058343 0.10855693 -0.16331409 0.004702385
-0.21303068 0.08789295 0.6766001 0 0.98079556 0.11072465 -0.16056199 0.0052877269
-0.21302669 0.092524029 0.67622232 0 0.97859752 0.12327608 -0.16477177 0.0048202155
-0.21664287 0.099642865 0.67500001 0 0.97902143 0.12557359 -0.16046268 0.0038554231
-0.21306203 0.097443335 0.67670006 0 0.97925311 0.12454028 -0.15985319 0.0041548158
0.24492858 0.097071432 0.67500001 0 -0.98971701 -0.14036906 -0.027507709 0.0043239617
0.24575287 0.097787149 0.67550004 0 -0.98966843 -0.14092149 -0.026410045 0.0042915842
-0.21728572 0.10092857 0.67500001 0 0.97988135 0.12073196 -0.158922 0.0039232029
-0.21208593 0.10215377 0.67592317 0 0.98029441 0.12106423 -0.15609713 0.0041861045
0.24379335 0.10411334 0.67900002 0 -0.98793459 -0.1502829 -0.037422325 0.0040740208
0.24508668 0.10346667 0.67900002 0 -0.98802298 -0.15056196 -0.033791143 0.0038988309
-0.2126143 0.10695286 0.67650002 0 0.98136777 0.1175264 -0.15200253 0.0043820641
0.24289572 0.10759 0.67650002 0 -0.98778266 -0.15027572 -0.041262031 0.0048155566
-0.21582717 0.11372905 0.67850006 0 0.98164761 0.10108215 -0.16171071 0.0045209313
-0.21438858 0.11137906 0.67600006 0 0.98155665 0.11107454 -0.15559226 0.0042393082
0.2430492 0.11315207 0.67633337 0 -0.9882915 -0.14550813 -0.045904253 0.0044642254
-0.21677554 0.11672899 0.67714292 0 0.98020595 0.088727899 -0.17698468 0.0057865223
0.24185653 0.11738732 0.67600006 0 -0.98659718 -0.15301076 -0.056689542 0.0042684316
-0.21653192 0.12259938 0.67633343 0 0.9776113 0.024936497 -0.20893581 0.0098179337
-0.21438858 0.12039239 0.67600006 0 0.97746414 0.046496522 -0.20591727 0.0084841745
0.24151596 0.12140405 0.67624998 0 -0.98673695 -0.14906888 -0.064255521 0.0042504943
-0.21576792 0.12806505 0.67571437 0 0.97502744 -0.056572389 -0.21475779 0.012634652
-0.21438858 0.12683049 0.67600006 0 0.97492504 -0.031708214 -0.22026327 0.013806487
0.23991334 0.12998001 0.67900002 0 -0.98758942 -0.13986459 -0.071449064 0.0039509106
0.24111716 0.12646446 0.67633337 0 -0.98857671 -0.13665468 -0.063573144 0.0043738349
-0.21610034 0.13288477 0.67733335 0 0.95437765 -0.17565109 -0.24147467 0.017783582
0.2393232 0.13309938 0.67733335 0 -0.98921698 -0.1271908 -0.072610579 0.0041895309
0.24014097 0.13133715 0.67600006 0 -0.98906475 -0.13148104 -0.066810824 0.0039822566
-0.21663816 0.13733812 0.67653859 0 0.92762512 -0.28369454 -0.24295875 0.022916835
0.23796448 0.13783604 0.67683333 0 -0.98839301 -0.13385326 -0.071851328 0.0043005832
-0.21560822 0.14227888 0.67660004 0 0.86433053 -0.43650866 -0.24978566 0.026772114
-0.21345794 0.14259255 0.67850006 0 0.84756929 -0.46528661 -0.25521463 0.028737007
0.23793037 0.14279155 0.67612505 0 -0.98918778 -0.1342255 -0.059084885 0.004190539
-0.21519002 0.14560714 0.67650002 0 0.82149976 -0.50777638 -0.2594249 0.025284508
-0.2127694 0.14764801 0.67699999 0 0.75445455 -0.611615 -0.23817083 0.025432236
0.23746181 0.14772846 0.67662507 0 -0.99041593 -0.13377379 -0.034362156 0.0050879843
-0.21050987 0.15073209 0.67733335 0 0.67596561 -0.69570625 -0.24302956 0.026227022
-0.20735431 0.15262718 0.67672729 0 0.60221511 -0.76451582 -0.22989663 0.021300701
-0.2030499 0.15418179 0.67737502 0 0.50372332 -0.83414459 -0.22464535 0.023459665
0.23674262 0.15245584 0.67700005 0 -0.99198157 -0.12494057 -0.019038729 0.0051008957
-0.20180859 0.15538763 0.67700005 0 0.44336349 -0.86983001 -0.21638966 0.02032581
-0.19770072 0.15654837 0.67691672 0 0.36524609 -0.91014642 -0.19552167 0.017264245
-0.19278191 0.15844955 0.67699999 0 0.2533046 -0.95071077 -0.17884509 0.010565449
-0.18992382 0.15902096 0.67600006 0 0.20136827 -0.96652406 -0.1590033 0.0091071734
-0.18213636 0.15866874 0.67816663 0 0.11026759 -0.98164994 -0.15557849 0.0057908194
-0.17782605 0.15890351 0.67733335 0 0.087628819 -0.9850958 -0.14801195 0.0042734272
-0.1731094 0.1587358 0.67714298 0 0.089069918 -0.98509061 -0.14718319 0.0040409355
-0.16826817 0.15903825 0.67842859 0 0.085849926 -0.98562872 -0.14548445 0.004034088
-0.16360667 0.15972668 0.67900002 0 0.10645798 -0.98319387 -0.14831209 0.0040298775
-0.15637858 0.15960905 0.67850006 0 0.12998837 -0.97983605 -0.15173812 0.0040848725
-0.15318415 0.15964827 0.67866677 0 0.1270393 -0.98008221 -0.1526431 0.0042906967
