# .PCD v0.7 - Point Cloud Data file format
VERSION 0.7
FIELDS x y z rgb normal_x normal_y normal_z curvature
SIZE 4 4 4 4 4 4 4 4
TYPE F F F F F F F F
COUNT 1 1 1 1 1 1 1 1
WIDTH 570
HEIGHT 1
VIEWPOINT 0 0 0 1 0 0 0
POINTS 570
DATA ascii
-0.23907079 0.16348109 0.64191246 0 0.3611517 0.26352224 -0.89449739 0.054455034
-0.23406687 0.16307423 0.64126921 0 0.32759571 0.2065739 -0.92195898 0.057224777
-0.22942571 0.16171059 0.64059371 0 0.31318316 0.23125392 -0.92110693 0.059721705
-0.22457823 0.1614739 0.64036751 0 0.2696971 0.19697013 -0.94258487 0.064229362
-0.21943548 0.16207245 0.64020157 0 0.25337142 0.22234303 -0.94147044 0.067743279
-0.21426964 0.16158178 0.63918561 0 0.21997423 0.20204233 -0.95435339 0.062513456
-0.24851896 0.16778424 0.64076388 0 0.29066229 0.52059019 -0.80280834 0.040665012
-0.24543706 0.1680387 0.64057702 0 0.28105909 0.50345933 -0.81702787 0.038654815
-0.23341808 0.16819844 0.63838482 0 0.28308922 0.44718331 -0.84846187 0.04389238
0.22977445 -0.032507062 0.69983232 0 -0.20533912 0.78922623 -0.57875526 0.052841756
0.23494717 -0.03323102 0.69894242 0 -0.37531203 0.76333195 -0.52579963 0.071658783
0.23925951 -0.031926692 0.6988132 0 -0.51786268 0.64267778 -0.56460923 0.074569069
0.22017446 -0.029477268 0.69875586 0 0.023042953 0.74393928 -0.66784996 0.023006879
0.22488141 -0.029065907 0.69944859 0 -0.078094922 0.76544404 -0.63874626 0.039254621
0.22962478 -0.029464662 0.69867158 0 -0.25153917 0.7408964 -0.62273639 0.062821597
0.23452821 -0.030235678 0.69750428 0 -0.41409212 0.69765192 -0.58464468 0.074515954
0.23968688 -0.030181855 0.69702971 0 -0.58326447 0.6119653 -0.53413564 0.074851491
0.16855606 -0.020349741 0.70386076 0 0.070445701 0.61225647 -0.78751475 0.017811179
0.18059888 -0.021173328 0.70118749 0 0.053309582 0.65358186 -0.75497609 0.012298822
0.18527004 -0.021130443 0.70168591 0 0.048947997 0.67043442 -0.74035257 0.0097418176
0.18991581 -0.021605998 0.70093918 0 0.072362117 0.68611759 -0.72388273 0.0062997011
0.19497052 -0.022312731 0.70071018 0 0.10173317 0.69807673 -0.70875895 0.004936906
0.19997612 -0.023073405 0.69974089 0 0.13046798 0.70542967 -0.69666862 0.0039357152
0.20470229 -0.02281329 0.69958913 0 0.14641897 0.71580505 -0.68277711 0.0032378405
0.20987687 -0.024894148 0.6989429 0 0.1412372 0.71181571 -0.68801922 0.0041046161
0.21435663 -0.02602917 0.6978811 0 0.13099864 0.71612442 -0.68556929 0.0044889012
0.21898642 -0.026114374 0.69769073 0 0.034206375 0.74752617 -0.66335106 0.021014966
0.22428584 -0.026402771 0.69785392 0 -0.090712465 0.74786836 -0.65762013 0.041995157
0.2275331 -0.026711196 0.69721532 0 -0.19973779 0.75599504 -0.62335891 0.058372021
0.23446062 -0.027369201 0.69585299 0 -0.4884012 0.64175141 -0.59128624 0.080470756
0.24030676 -0.02738148 0.69207132 0 -0.72983807 0.47232389 -0.4942129 0.068429045
0.098134547 -0.009496659 0.71374667 0 0.092633247 0.80692667 -0.58334237 0.0075571095
0.10153493 -0.0097545683 0.71372092 0 0.09769918 0.81817585 -0.56660676 0.008018815
0.10589449 -0.01023373 0.71222055 0 0.095296241 0.82581949 -0.5558244 0.00840538
0.11300778 -0.010909408 0.71082163 0 0.067692146 0.83519465 -0.54577267 0.0074152038
0.11624108 -0.011216491 0.71018577 0 0.048385199 0.84177941 -0.53764886 0.0066897641
0.1498675 -0.014410526 0.70357275 0 0.10908485 0.76029128 -0.64035732 0.01977432
0.15508309 -0.015386313 0.70300436 0 0.10227868 0.72589779 -0.68015552 0.021777421
0.16044468 -0.01559031 0.70236433 0 0.086165957 0.69958514 -0.70933497 0.020620469
0.16568822 -0.01608938 0.70244205 0 0.06397108 0.68289095 -0.72771406 0.016929979
0.16998816 -0.017381072 0.7026217 0 0.069485158 0.66925693 -0.73977488 0.015518037
0.17478701 -0.01805833 0.70117307 0 0.064443253 0.67553836 -0.73450327 0.01222318
0.17983803 -0.01770857 0.70106936 0 0.063470393 0.693165 -0.71797889 0.0083463658
0.18465823 -0.018188298 0.70098817 0 0.070474006 0.69389194 -0.71662217 0.0068972227
0.18976787 -0.019070685 0.70078433 0 0.082502477 0.70537907 -0.70401257 0.0054475581
0.19601962 -0.019857526 0.6997385 0 0.11692379 0.71574324 -0.68850607 0.0039057864
0.19991636 -0.020227641 0.69897223 0 0.13935852 0.7162531 -0.68378401 0.0029100175
0.20251414 -0.020474404 0.69846129 0 0.14061573 0.71491927 -0.68492162 0.0025749987
0.24036497 -0.024557143 0.6896013 0 -0.77519542 0.39476085 -0.49318966 0.059871387
0.24117908 -0.022649229 0.68731666 0 -0.81590176 0.32486296 -0.47829744 0.05423934
0.086528778 -0.004571408 0.71359909 0 0.12153151 0.76498568 -0.63247693 0.0059467773
0.091645941 -0.0054842234 0.71296537 0 0.11883049 0.78037924 -0.61391169 0.008116194
0.096466869 -0.0058909655 0.71319056 0 0.11063367 0.79101449 -0.60171115 0.0080616884
0.10130282 -0.0062904954 0.71342826 0 0.10913672 0.80484194 -0.58336842 0.0093533518
0.10628796 -0.0069307089 0.71242487 0 0.10526585 0.81810266 -0.56535578 0.009052556
0.11137223 -0.0080086887 0.71219647 0 0.086089514 0.8265962 -0.55617207 0.0080454573
0.11695655 -0.0087839961 0.71076715 0 0.051620472 0.83639586 -0.54568982 0.0072054132
0.11917466 -0.0091335475 0.70947623 0 0.04478335 0.84361714 -0.53507435 0.0068395534
0.13086092 -0.010484844 0.70740759 0 0.071403868 0.83281982 -0.54891944 0.01141989
0.13579598 -0.010303646 0.70589674 0 0.062392328 0.83344173 -0.54907376 0.0105535
0.14037251 -0.0096330941 0.70497429 0 0.059949264 0.83412689 -0.54830503 0.012052052
0.14568666 -0.010502189 0.70387316 0 0.057542343 0.82012814 -0.56927902 0.014187382
0.15074721 -0.011529744 0.70371175 0 0.095800169 0.78614289 -0.6105749 0.016861301
0.15533856 -0.011835903 0.70307672 0 0.080492489 0.77596796 -0.62561548 0.01650966
0.16002885 -0.012289405 0.70226276 0 0.074748352 0.76923937 -0.6345734 0.015482922
0.16446772 -0.012573153 0.70125854 0 0.063404322 0.75341749 -0.65447843 0.01335442
0.24129423 -0.019310027 0.6851629 0 -0.87260079 0.20829903 -0.44179106 0.032806545
0.038049683 0.0029371381 0.71916068 0 0.10042516 0.72331357 -0.68317819 0.0020165567
0.04252778 0.0026050508 0.71913135 0 0.095240533 0.71854669 -0.68892646 0.0018408172
0.047359064 0.0021927953 0.71860683 0 0.089314796 0.71406025 -0.69436359 0.0018394311
0.052422509 0.0013798177 0.71651709 0 0.090640396 0.71355343 -0.6947127 0.0017794671
0.056500688 0.00094431639 0.71576071 0 0.093431771 0.72560626 -0.6817376 0.0026289227
0.060682863 0.00078731775 0.71470952 0 0.096743666 0.73091525 -0.67557645 0.0040435842
0.067406893 0.0001308918 0.71461284 0 0.099984676 0.73695219 -0.66850919 0.0036795447
0.072217464 -0.00013330579 0.71485972 0 0.10525101 0.73815811 -0.66636688 0.0031117206
0.076454774 -0.0011498034 0.71383882 0 0.10890527 0.74632508 -0.65661132 0.0036476511
0.081023008 -0.0023932755 0.71387208 0 0.11970415 0.75389916 -0.64599305 0.004471757
0.0869634 -0.0020861924 0.7134254 0 0.12369537 0.75458515 -0.64443815 0.0050839437
0.091427654 -0.0022020638 0.71295929 0 0.12548499 0.75594741 -0.64249301 0.006478691
0.24018434 -0.015503794 0.68150628 0 -0.89449924 0.13125405 -0.42736799 0.025688171
0.24085125 -0.016755164 0.68144834 0 -0.89704794 0.14072318 -0.41892973 0.02522877
0.017146483 0.0081258416 0.72022283 0 0.11459729 0.73400486 -0.66940594 0.0023165054
0.022121698 0.0078246295 0.71970797 0 0.12734459 0.73176759 -0.66955167 0.0016480511
0.027801588 0.0076701045 0.71885121 0 0.13211976 0.7252329 -0.67570817 0.0019653137
0.032242537 0.0069922507 0.71880126 0 0.1242522 0.72088736 -0.68182313 0.0023873942
0.036572516 0.0062464476 0.71925509 0 0.10743462 0.71795112 -0.68775296 0.0018986684
0.042198807 0.0055979192 0.71872711 0 0.087941624 0.71388972 -0.69471425 0.0015277651
0.047617003 0.0053370893 0.71836019 0 0.086653128 0.71671069 -0.69196606 0.0018991819
0.052628025 0.0047456324 0.71685779 0 0.089756422 0.71202528 -0.69639349 0.0019898757
0.057403952 0.0045362115 0.71578407 0 0.093835801 0.71291 -0.69494903 0.0025246567
0.060357794 0.0041677654 0.71525156 0 0.10024334 0.71432304 -0.69259942 0.0025107241
0.066413999 0.0028618276 0.71484995 0 0.10605916 0.72454077 -0.68102294 0.002624806
0.23992988 -0.012588471 0.67880452 0 -0.91307473 0.089225367 -0.39791137 0.020245614
0.24024352 -0.013865918 0.6771102 0 -0.9324978 0.05762751 -0.35654858 0.010883718
-0.077086024 0.021560878 0.73448646 0 0.078984462 0.66419101 -0.74337852 0.0055073886
-0.0466929 0.018673986 0.72850931 0 0.097544171 0.70790124 -0.6995433 0.0039673531
-0.041514337 0.017993838 0.72847593 0 0.10796096 0.72011399 -0.68540514 0.0041118362
-0.036346309 0.017691225 0.72647452 0 0.10495198 0.73410797 -0.67087305 0.0041848975
-0.030970626 0.018443435 0.72703552 0 0.088046327 0.7405982 -0.66615474 0.0026121552
-0.026138946 0.017428577 0.72590947 0 0.067335501 0.75178826 -0.65595752 0.0017964138
-0.022063509 0.016515732 0.72518539 0 0.057662286 0.75510108 -0.65306771 0.001892932
-0.016800523 0.015188724 0.72395039 0 0.049103808 0.75314933 -0.65601444 0.0026079852
-0.010938376 0.013992339 0.72326529 0 0.034647476 0.75297403 -0.65713745 0.0028212154
-0.0077296719 0.013507962 0.72302461 0 0.038593642 0.75251108 -0.65744787 0.0023577097
-0.0025728717 0.013231754 0.72180724 0 0.044154648 0.75103009 -0.65878993 0.0026138104
0.0028152019 0.01297152 0.72071183 0 0.051804133 0.74927807 -0.66022617 0.002611144
0.0080083087 0.012407452 0.7192409 0 0.072505496 0.74251908 -0.66588902 0.0027726169
0.012443855 0.012245506 0.71906173 0 0.091675729 0.7373417 -0.66927028 0.0026867611
0.01688014 0.011527836 0.71931732 0 0.10998794 0.73571682 -0.66829884 0.0027105226
0.022230037 0.01128152 0.71889329 0 0.11835067 0.72974831 -0.6733948 0.0027144835
0.02764529 0.011046201 0.71818936 0 0.12472526 0.72126836 -0.68133378 0.002521157
0.032382339 0.010162026 0.7181412 0 0.11858248 0.71594727 -0.68800998 0.0025478422
0.23963305 -0.0091873109 0.67565244 0 -0.94235843 0.00035643514 -0.3346048 0.0045960839
0.23997411 -0.0091183782 0.67448187 0 -0.9444918 -0.0044867611 -0.32850412 0.0038120623
-0.084100887 0.026622087 0.73450315 0 0.10049519 0.63463992 -0.76624602 0.0042567709
-0.080517471 0.025936007 0.73389244 0 0.090998553 0.63629144 -0.76606303 0.0045790952
-0.075407773 0.025382906 0.73365724 0 0.08405114 0.64179206 -0.76225871 0.0035462885
-0.070532873 0.025064588 0.73256063 0 0.087666638 0.65115213 -0.75386697 0.0031084183
-0.066232637 0.024338365 0.73131239 0 0.076109082 0.65685999 -0.75016165 0.0039079166
-0.061112978 0.024053395 0.73022079 0 0.079805598 0.66383386 -0.74360979 0.0051291175
-0.055839539 0.023468196 0.72949278 0 0.090871342 0.67172158 -0.73520911 0.0044062911
-0.051042087 0.022919863 0.72879314 0 0.098012857 0.68146551 -0.72525746 0.0039336877
-0.04673034 0.021687955 0.7287848 0 0.10118335 0.69903922 -0.70788848 0.0040603736
-0.041402683 0.021141559 0.72840214 0 0.11219127 0.70954341 -0.69567323 0.0038729648
-0.036239289 0.020706534 0.72709894 0 0.11318616 0.71717411 -0.68764108 0.0040692161
-0.030972846 0.020472586 0.72604477 0 0.09987063 0.72587472 -0.6805377 0.0034437482
-0.027802438 0.01990515 0.72543979 0 0.078921147 0.73952013 -0.66849196 0.0028022465
0.23968419 -0.0052427649 0.67148054 0 -0.94825178 -0.028352411 -0.31625104 0.0024739797
-0.099664465 0.030432135 0.73252439 0 0.13364477 0.64514524 -0.75228095 0.0069114589
-0.097049654 0.029863447 0.73231506 0 0.12822007 0.64476311 -0.75355166 0.0063150488
-0.090966091 0.029285938 0.73205841 0 0.10611191 0.63558096 -0.76470721 0.0046107871
-0.086122006 0.029007435 0.73241031 0 0.10032164 0.63216114 -0.76831508 0.0045975074
-0.0807423 0.029486507 0.73198771 0 0.094855025 0.63367581 -0.76776141 0.0043059974
-0.075997092 0.028780371 0.73153269 0 0.089242421 0.63681167 -0.76583719 0.0034012741
-0.068312943 0.027447313 0.73059559 0 0.087349854 0.64516026 -0.75903767 0.0035433327
-0.055323876 0.026213527 0.72804105 0 0.095422745 0.66366184 -0.74192148 0.0050142459
0.23891219 -0.00092729926 0.66799748 0 -0.94644409 -0.030202135 -0.3214522 0.002382179
0.23944125 -0.0033817291 0.66877174 0 -0.94729233 -0.031395569 -0.31882843 0.0022562121
-0.12974918 0.037133515 0.73478246 0 0.068180539 0.79671371 -0.60049868 0.02048181
-0.1246423 0.037941694 0.73536742 0 0.074911878 0.79693341 -0.5994041 0.018740857
-0.11963747 0.03703776 0.73455596 0 0.071036026 0.7857002 -0.6145153 0.019064708
-0.11577995 0.036780328 0.73449266 0 0.068501003 0.77189821 -0.63204485 0.019295059
-0.11060683 0.034311235 0.73277938 0 0.099708423 0.70492178 -0.70224172 0.014964545
-0.1059373 0.034101665 0.73177266 0 0.1048874 0.69036341 -0.71581912 0.014228849
-0.10053903 0.033546627 0.73247457 0 0.1285046 0.65418041 -0.7453419 0.0083874175
-0.09510453 0.033063352 0.73140299 0 0.11909308 0.64579284 -0.75416738 0.0069750547
-0.09076035 0.033246964 0.73067331 0 0.10077221 0.64660412 -0.75614023 0.0075337705
-0.086430699 0.032835573 0.73066807 0 0.098423153 0.63117635 -0.76936948 0.005571817
-0.081578024 0.031843841 0.73021889 0 0.10292768 0.63366306 -0.76673138 0.0046733166
0.237735 0.0018211305 0.66471243 0 -0.94693744 -0.032072429 -0.31981403 0.0022208523
-0.18828703 0.046537519 0.7426362 0 0.081203878 0.76047724 -0.64426732 0.001725491
-0.18570039 0.046291828 0.74212742 0 0.083532043 0.76197809 -0.64219308 0.0014620785
-0.17926334 0.045529485 0.74213326 0 0.088568516 0.76926053 -0.63276684 0.0018968582
-0.17441095 0.044856757 0.74065554 0 0.1041047 0.77463263 -0.62378389 0.0025993651
-0.16985783 0.044934243 0.74008048 0 0.11249552 0.78508407 -0.60908765 0.0047699143
-0.16488408 0.04486385 0.73939109 0 0.12107196 0.80205876 -0.58484471 0.0075966469
-0.15987356 0.04400897 0.73829627 0 0.11569987 0.80702877 -0.57906651 0.0088803554
-0.15494892 0.042663336 0.73886836 0 0.11923335 0.81135261 -0.57226765 0.010420499
-0.1494728 0.042339295 0.73924983 0 0.11351447 0.82275498 -0.55694592 0.010789718
-0.14502089 0.042936713 0.7378732 0 0.11637631 0.83827192 -0.53268814 0.011249559
-0.1399259 0.041103333 0.73580563 0 0.080935165 0.82652092 -0.55705708 0.014834682
-0.13577032 0.040085375 0.73511147 0 0.072861865 0.82299292 -0.56335932 0.01690024
-0.13057986 0.039546758 0.73466289 0 0.062967405 0.8192696 -0.56994087 0.018318841
-0.12580211 0.039597362 0.73497045 0 0.065431558 0.80762959 -0.58604878 0.018446749
-0.12120967 0.039468646 0.73433864 0 0.072335206 0.80110115 -0.59414202 0.018162027
-0.11501864 0.038639307 0.73335075 0 0.048669025 0.78847498 -0.61313832 0.019823935
-0.10657573 0.037837386 0.73169041 0 0.091830909 0.75878751 -0.64483219 0.018784827
0.2374005 0.0055383444 0.66114944 0 -0.94760484 -0.025746619 -0.31840584 0.0022195559
-0.21301687 0.052679807 0.74501705 0 0.19060454 0.78107047 -0.59464186 0.0094067305
-0.20885871 0.05284065 0.7446574 0 0.16619468 0.78084087 -0.60221821 0.0077378363
-0.20435296 0.051166207 0.7446053 0 0.14750993 0.78031433 -0.60774207 0.0072104344
-0.19895816 0.051323563 0.74325919 0 0.13111441 0.77667958 -0.61609906 0.0056883479
-0.19441076 0.050506264 0.74273181 0 0.110163 0.76844335 -0.63036418 0.0046750852
-0.18946765 0.050111651 0.7416414 0 0.087932236 0.76551038 -0.63738674 0.0017999458
-0.18458188 0.049228758 0.74112618 0 0.085768141 0.76985306 -0.63243181 0.0019509103
-0.17903376 0.048980951 0.74170804 0 0.092861921 0.77523065 -0.62481523 0.0021074179
-0.1741059 0.048476905 0.7405467 0 0.11886263 0.78324872 -0.6102401 0.003522042
-0.16970746 0.047907114 0.73999417 0 0.12148631 0.7921195 -0.59815365 0.0046582753
-0.16471681 0.04722026 0.73945022 0 0.12513773 0.80819726 -0.57546306 0.0074826628
-0.1608201 0.046850145 0.73868394 0 0.12172202 0.81575793 -0.56544042 0.0081509994
0.23733482 0.0099373162 0.65790796 0 -0.94413429 -0.01335994 -0.32928994 0.002354942
-0.21846873 0.056160718 0.74425626 0 0.23607293 0.78203231 -0.57679725 0.01080565
-0.2143666 0.055198789 0.74441719 0 0.20435585 0.78110898 -0.59000653 0.0095162848
-0.2104397 0.055094093 0.74437654 0 0.1712601 0.77889091 -0.60332316 0.0085091237
-0.19752923 0.054197341 0.74222887 0 0.11771058 0.77839357 -0.6166423 0.0052476493
0.23629269 0.013085753 0.65470678 0 -0.9449206 -0.0089306282 -0.32717767 0.0022380499
-0.2257105 0.059769422 0.74501538 0 0.44870681 0.70216817 -0.55283082 0.027022848
0.23571676 0.016228527 0.65181684 0 -0.94814539 -0.0063354401 -0.31777379 0.0026880775
0.2351816 0.02041927 0.64790481 0 -0.95035529 -0.013766663 -0.31086203 0.0033389812
0.23580185 0.024189562 0.64482749 0 -0.95068824 -0.025441429 -0.30910286 0.0035264224
0.2369878 0.023439765 0.64253724 0 -0.95429027 -0.035575759 -0.29675654 0.0029987844
0.23568019 0.027695209 0.64144742 0 -0.95310307 -0.041910868 -0.29972997 0.0035269973
0.23673412 0.026346713 0.63984323 0 -0.95626825 -0.046452429 -0.28877887 0.0031720761
0.23566729 0.03111276 0.63927931 0 -0.9528569 -0.051386435 -0.29903704 0.0033032438
0.23647726 0.030581295 0.63729656 0 -0.95518118 -0.056094497 -0.2906583 0.0029709334
0.23523951 0.036871254 0.63378012 0 -0.95204717 -0.061320588 -0.29974312 0.0033332733
0.23654568 0.034557134 0.63546681 0 -0.95324117 -0.064652845 -0.29521412 0.0034019453
0.23367682 0.03940317 0.63111389 0 -0.95171571 -0.066984773 -0.29958344 0.0036635804
0.23042563 0.043465912 0.62959033 0 -0.95070714 -0.064802334 -0.30324337 0.0032189663
0.23238841 0.042871624 0.62754148 0 -0.95172054 -0.063583396 -0.30030867 0.0033211233
0.23004344 0.047845125 0.62553191 0 -0.95179027 -0.050235488 -0.30260804 0.0031128046
0.23237285 0.045726389 0.62405968 0 -0.9526403 -0.047039807 -0.30043912 0.0030482977
0.22978866 0.05076462 0.62282628 0 -0.95094573 -0.040172543 -0.30673814 0.0026184255
0.23125869 0.049912691 0.62180507 0 -0.95154244 -0.040339429 -0.30486009 0.0026911339
0.22944894 0.054657251 0.61921877 0 -0.94926214 -0.038842682 -0.31207785 0.0024580045
0.23142716 0.053370446 0.61733758 0 -0.94711488 -0.03108003 -0.31938595 0.0028454913
0.22899082 0.05837974 0.61545461 0 -0.94631791 -0.011127929 -0.3230457 0.0034988336
0.23094177 0.057218492 0.6140964 0 -0.93844962 0.0072636078 -0.34533975 0.0069441237
0.22792587 0.061676025 0.61227047 0 -0.93668348 0.022747932 -0.34943756 0.0073655979
0.22980738 0.060405046 0.61082506 0 -0.91668308 0.078609124 -0.39180705 0.020721354
0.22762883 0.065079629 0.6091162 0 -0.90975702 0.081703782 -0.40702155 0.021553086
0.22949246 0.063839197 0.60784829 0 -0.88898361 0.13042575 -0.43897286 0.028865732
0.22636399 0.068438023 0.6047318 0 -0.8603788 0.16930102 -0.48071337 0.03556855
0.22833541 0.066735476 0.60381222 0 -0.83979648 0.20079309 -0.50440466 0.044025268
0.22669008 0.072093487 0.60160202 0 -0.80234581 0.27096584 -0.53180707 0.050591838
0.22839448 0.071448654 0.59987324 0 -0.76633477 0.31694138 -0.55881959 0.056576185
0.22758052 0.076066792 0.59937751 0 -0.74377847 0.33852431 -0.57636356 0.057842892
0.23011845 0.075398266 0.59734643 0 -0.69951582 0.37246197 -0.60987687 0.056402836
-0.24170704 0.12498507 0.68753517 0 0.83439082 -0.30659544 -0.4580296 0.066862091
-0.23980115 0.12528655 0.68670106 0 0.81957424 -0.31912071 -0.47587821 0.06015908
0.23090711 0.078698307 0.59511209 0 -0.63286626 0.4420076 -0.63569617 0.054559119
0.23385438 0.078626543 0.59231997 0 -0.50270677 0.52445447 -0.68719232 0.043977089
0.23904398 0.078470439 0.59118032 0 -0.40241781 0.57177413 -0.71493655 0.033865962
0.24403301 0.07769981 0.59028018 0 -0.28250661 0.6374535 -0.71682841 0.01928826
0.24777207 0.07622841 0.5891971 0 -0.21085161 0.66743362 -0.7141946 0.012774813
-0.23981118 0.12786117 0.68425357 0 0.82992327 -0.3509596 -0.43365264 0.052834321
0.23417243 0.081713766 0.5921104 0 -0.52665621 0.51601547 -0.6755451 0.04385734
0.23912296 0.080864906 0.59079206 0 -0.36768085 0.58931029 -0.71939147 0.026090218
0.24444047 0.080549091 0.58991873 0 -0.2544708 0.63484722 -0.72952974 0.015277651
-0.24377035 0.13386688 0.67967379 0 0.82029343 -0.37589914 -0.43106678 0.04712487
-0.24332201 0.13525358 0.67766118 0 0.79924828 -0.39979154 -0.44874144 0.045389358
-0.24176632 0.13570294 0.67488337 0 0.78723949 -0.42001256 -0.45149019 0.044660971
-0.24020185 0.13771448 0.67257011 0 0.76109886 -0.44088882 -0.47575793 0.042037219
-0.23905681 0.14036193 0.67072856 0 0.73507386 -0.44528663 -0.51125938 0.031696096
-0.23745233 0.14172819 0.66840363 0 0.73590934 -0.42080578 -0.53043371 0.024587478
-0.23701066 0.14490059 0.6645875 0 0.70170188 -0.42212644 -0.57395458 0.033925742
-0.23122187 0.14680085 0.66347897 0 0.57593489 -0.48326346 -0.65935975 0.018026015
-0.22815846 0.14686039 0.66282487 0 0.54565114 -0.49208352 -0.67832047 0.018054981
-0.2362493 0.1473116 0.66105199 0 0.66054618 -0.38354757 -0.64542234 0.040235799
-0.23175889 0.14875504 0.66033179 0 0.57815772 -0.40405142 -0.70885551 0.03071766
-0.22755671 0.14894554 0.66006315 0 0.50926059 -0.45458141 -0.73075944 0.02470362
-0.23199458 0.15022555 0.65684545 0 0.54752368 -0.33281979 -0.76775575 0.04281909
-0.22700718 0.15162095 0.65623975 0 0.48201904 -0.36388755 -0.79702169 0.04397979
-0.22221598 0.15256909 0.65568542 0 0.376019 -0.39215931 -0.83953607 0.041076887
-0.21808936 0.15220508 0.6546123 0 0.33083135 -0.41120917 -0.84938663 0.037404764
-0.2263106 0.1531826 0.65298676 0 0.39154938 -0.28514451 -0.874861 0.056083471
-0.22235511 0.15375397 0.65213001 0 0.35671365 -0.31744829 -0.87862509 0.053429712
-0.2179419 0.15331957 0.65114105 0 0.31227544 -0.32126111 -0.89402205 0.050457824
-0.21315674 0.15350112 0.65025878 0 0.25819391 -0.34705597 -0.90160304 0.045587208
-0.20835176 0.15425608 0.64915967 0 0.2620883 -0.34350049 -0.90184093 0.047038015
-0.20307209 0.15461108 0.64824629 0 0.25185564 -0.33040133 -0.90961725 0.04888308
-0.20051676 0.15485087 0.64728439 0 0.25487739 -0.32752419 -0.90981609 0.043828364
-0.2209112 0.15582088 0.64798558 0 0.31833312 -0.1657066 -0.93338376 0.066299178
-0.21892893 0.15515211 0.64805305 0 0.3248975 -0.18084005 -0.92829871 0.065790839
-0.2136561 0.15552494 0.64618468 0 0.25110513 -0.1377928 -0.95810199 0.061444901
-0.20871417 0.15627876 0.6453644 0 0.23971719 -0.1674276 -0.9562968 0.062375009
-0.20376503 0.15641192 0.6447041 0 0.25445479 -0.18102598 -0.94999075 0.056181394
-0.19888416 0.15673837 0.64401197 0 0.25797594 -0.1836895 -0.94852859 0.052158684
-0.1941072 0.15708229 0.64285046 0 0.27289 -0.15219945 -0.94992965 0.056639124
-0.22016755 0.16199639 0.64189422 0 0.25690928 0.1563056 -0.95371193 0.070086941
-0.20874012 0.15912637 0.6413455 0 0.22925428 0.032120951 -0.97283649 0.065907985
-0.20387414 0.15900734 0.64006186 0 0.24981545 0.0053637726 -0.96827859 0.062833466
-0.19896758 0.15939543 0.63960016 0 0.25218642 0.020892059 -0.96745312 0.057284649
-0.19410789 0.15957364 0.6396277 0 0.24691984 -0.023334514 -0.96875495 0.052646529
-0.18966091 0.1596103 0.63963801 0 0.26101959 -0.048430674 -0.96411783 0.054699
-0.24249232 0.16796067 0.64262617 0 0.30847582 0.38808456 -0.8684659 0.047135238
-0.23925903 0.16765359 0.6419903 0 0.32606545 0.32615507 -0.88730168 0.051590327
-0.23368077 0.1669316 0.64107621 0 0.30371663 0.37020245 -0.87789881 0.05218906
-0.2284894 0.16589478 0.64151281 0 0.25602964 0.32189628 -0.91149968 0.049564168
-0.22404064 0.16633227 0.64185596 0 0.25373131 0.27630618 -0.92697108 0.058301657
-0.21923722 0.16558775 0.64087236 0 0.24222836 0.24712454 -0.93821889 0.063052893
-0.21383364 0.16483423 0.63925505 0 0.20750344 0.26811844 -0.94077361 0.062489696
-0.20919397 0.16326019 0.63915265 0 0.21019585 0.21157421 -0.9544915 0.056167837
-0.20415984 0.16184446 0.63814849 0 0.22086078 0.17167607 -0.96007699 0.055232245
-0.19965173 0.16155222 0.63736761 0 0.23578092 0.11881956 -0.96451509 0.052797262
-0.19415879 0.1616849 0.63707447 0 0.23619115 0.097353674 -0.9668175 0.055502854
-0.1899956 0.16221574 0.63725436 0 0.2443334 0.050555885 -0.96837258 0.054098789
-0.24339071 0.17087558 0.64187229 0 0.24792793 0.5132013 -0.82167876 0.038630817
-0.23884349 0.17052534 0.64095068 0 0.29622781 0.43303406 -0.85131109 0.045213472
-0.23328462 0.16879031 0.63999915 0 0.29186171 0.43234295 -0.85316837 0.047345378
-0.22813965 0.16941753 0.64064443 0 0.23267281 0.40285122 -0.88519722 0.037366286
-0.22301035 0.16905114 0.64022583 0 0.20625849 0.39133459 -0.89683592 0.04289183
-0.2195324 0.16855994 0.63969499 0 0.19751717 0.36642367 -0.90924186 0.044047602
-0.21582387 0.16788599 0.63927186 0 0.19964083 0.34761339 -0.91613781 0.047799204
-0.24279119 0.17430785 0.64090097 0 0.20072857 0.62794077 -0.75192976 0.037153322
-0.24084283 0.17412278 0.64051783 0 0.21926436 0.61436063 -0.75794733 0.034389708
0.2394447 -0.027931094 0.69777715 0 -0.57257921 0.5657078 -0.59340364 0.071935393
0.20737833 -0.020691186 0.70009148 0 0.14549308 0.72198027 -0.67644382 0.0030840589
0.21036977 -0.020631641 0.70035124 0 0.14885154 0.72575516 -0.67165673 0.0031836741
0.21514463 -0.020620614 0.69967496 0 0.11548043 0.73370528 -0.66958249 0.0051925965
0.22022384 -0.021348804 0.69895279 0 0.017605798 0.73227656 -0.68077976 0.02255219
0.22520143 -0.021504253 0.69885111 0 -0.12502331 0.73098773 -0.67083991 0.045504585
0.23042199 -0.021997124 0.69836903 0 -0.28859806 0.69888538 -0.65442371 0.0664156
0.2350798 -0.022897989 0.69698155 0 -0.4809027 0.59591126 -0.64313477 0.075982809
0.23900834 -0.024850518 0.69535482 0 -0.61508226 0.54380345 -0.57092172 0.074291907
0.12806761 -0.0071490705 0.71490502 0 0.055342328 0.85054535 -0.5229817 0.0082616089
0.17056403 -0.013322949 0.70364666 0 0.05791432 0.72866863 -0.68241328 0.011190133
0.17522129 -0.013612658 0.70293796 0 0.070531987 0.71916389 -0.69125128 0.009434537
0.18055084 -0.014271557 0.70168269 0 0.061012011 0.71544325 -0.69600195 0.0074670198
0.18578976 -0.015091807 0.70095944 0 0.068811804 0.7181493 -0.69247854 0.0049344753
0.19044518 -0.015905589 0.70074999 0 0.092072681 0.72053689 -0.68727666 0.0043054889
0.19546834 -0.015930593 0.70129597 0 0.11286963 0.72576946 -0.67861557 0.0036642866
0.20029816 -0.016441941 0.70019472 0 0.13967264 0.73060775 -0.6683591 0.002920382
0.20567575 -0.016864479 0.69965732 0 0.15084973 0.73111302 -0.66537058 0.0022690014
0.21023306 -0.01665476 0.69980133 0 0.15158737 0.73839396 -0.65711153 0.0016851975
0.21552241 -0.017097324 0.69997334 0 0.10649144 0.737921 -0.6664325 0.0053035528
0.22512957 -0.018009871 0.698084 0 -0.13580556 0.71575445 -0.68502009 0.048709128
0.22993317 -0.018466204 0.69713926 0 -0.31909332 0.66028744 -0.67985272 0.068322189
0.23582849 -0.01902616 0.69597983 0 -0.53528631 0.5540818 -0.63754362 0.071561672
0.23957148 -0.019989878 0.69308543 0 -0.71433496 0.41542661 -0.56315744 0.061726153
0.098578766 -0.0026139915 0.7141186 0 0.1228358 0.77664167 -0.61785036 0.0079000127
0.10241814 -0.0017462671 0.71501064 0 0.12759282 0.7789703 -0.61394256 0.009468439
0.10786909 -0.0028273165 0.71362877 0 0.11697712 0.79823297 -0.59088099 0.01020286
0.11233836 -0.0037677288 0.71355808 0 0.096511476 0.81198919 -0.57563794 0.009217158
0.11654343 -0.0042488873 0.71269691 0 0.078472219 0.82321686 -0.56227756 0.0083941687
0.12278199 -0.0039424598 0.7132529 0 0.056187645 0.83407468 -0.54878277 0.0077101141
0.1273348 -0.0043916404 0.71307838 0 0.062829219 0.84224647 -0.53541887 0.0079581765
0.1310828 -0.0049447119 0.71136451 0 0.057908628 0.84497982 -0.53165376 0.0074113482
0.13645503 -0.004804939 0.71003115 0 0.064998262 0.84581578 -0.52950054 0.0074978755
0.14203899 -0.0047393739 0.70824826 0 0.041930307 0.84404075 -0.53463715 0.0076184315
0.14760113 -0.0058325529 0.70639944 0 0.0379319 0.83873057 -0.54322392 0.008248115
0.1510267 -0.0075662136 0.70495093 0 0.058712643 0.82841992 -0.55702168 0.0089842202
0.15607342 -0.0077815056 0.7039423 0 0.050639339 0.81658608 -0.57499826 0.010036762
0.16086993 -0.0083985031 0.70315242 0 0.045245737 0.80101615 -0.59693044 0.010714645
0.16615036 -0.0096151531 0.70226598 0 0.041375551 0.77872527 -0.62599915 0.011493183
0.17085767 -0.0096837878 0.70270193 0 0.045295708 0.76467991 -0.64281636 0.0088966908
0.17617998 -0.0094074309 0.70344448 0 0.052827284 0.75142378 -0.65770185 0.0068968283
0.18147007 -0.010428876 0.70234406 0 0.065004468 0.74159926 -0.66768628 0.0048847557
0.18572035 -0.010752559 0.70075405 0 0.076956928 0.74290812 -0.66495514 0.0031667314
0.19092551 -0.011057466 0.70064461 0 0.098018602 0.74795526 -0.65647179 0.0025542499
0.19561431 -0.012286186 0.70110905 0 0.12005541 0.74419391 -0.6570859 0.0020062472
0.20085463 -0.012783945 0.70007849 0 0.14062439 0.74690586 -0.64988971 0.0010083482
0.20478484 -0.013157248 0.69930565 0 0.14829724 0.74345875 -0.65213269 0.001314479
0.23995122 -0.015958816 0.68976176 0 -0.77963793 0.32180744 -0.53721941 0.052929252
0.063718408 0.0045686662 0.71728957 0 0.10872767 0.717026 -0.68851423 0.0026594012
0.069580242 0.0040118694 0.71613669 0 0.10762256 0.72238278 -0.68306696 0.002248155
0.072185487 0.0037644207 0.71562433 0 0.10820907 0.72642833 -0.67866981 0.0024423006
0.077292785 0.003163904 0.71519971 0 0.11544501 0.73362607 -0.66967553 0.0023751284
0.082547143 0.0026270449 0.71514261 0 0.12899074 0.73506826 -0.66560966 0.0027928939
0.087409094 0.0022293329 0.71450984 0 0.13568807 0.74150276 -0.65708637 0.0041458895
0.092055082 0.0014614165 0.71336579 0 0.13919309 0.74654132 -0.65061617 0.0043573189
0.096629471 0.00091642141 0.71373522 0 0.13245256 0.75700653 -0.63984168 0.005584558
0.10238849 0.00043821335 0.71475303 0 0.13161376 0.76831734 -0.62639147 0.0085342051
0.10815187 -8.5055828e-05 0.71460378 0 0.13519406 0.77964503 -0.61145419 0.0095247617
0.1140472 -0.00064501166 0.71344435 0 0.1033491 0.80209905 -0.58818042 0.0094365235
0.11732239 -0.00095611811 0.71280026 0 0.08643759 0.80974919 -0.58037466 0.0091521516
0.23927554 -0.012435406 0.68563271 0 -0.85028714 0.211569 -0.48192367 0.043134019
0.03835623 0.0094941258 0.71988213 0 0.093389399 0.7118336 -0.69611162 0.0017640082
0.04280974 0.0092222989 0.71926534 0 0.091224261 0.71194422 -0.69628555 0.0020963952
0.047954261 0.0087203085 0.71839201 0 0.088954046 0.71619421 -0.69220883 0.0022515676
0.05246821 0.0082788467 0.71726966 0 0.092486486 0.71716249 -0.69074166 0.0022307704
0.056581497 0.0079317987 0.71637225 0 0.098335646 0.71971828 -0.68726683 0.0025853193
0.063168943 0.0077573955 0.71624529 0 0.11050001 0.71799147 -0.68722481 0.0025191994
0.067649081 0.0072129667 0.7154572 0 0.12087099 0.71989995 -0.68347234 0.0022768688
0.072467998 0.007410109 0.71489358 0 0.11361606 0.72294551 -0.68149924 0.001724505
0.077313155 0.0067722797 0.71500695 0 0.11886911 0.72511631 -0.67828935 0.001812377
0.082661465 0.0068313181 0.71469748 0 0.13305128 0.72677815 -0.67386264 0.0021169691
0.087848023 0.0059545338 0.71341479 0 0.14063315 0.72837377 -0.67059213 0.0024868851
0.092562601 0.005464375 0.71309197 0 0.14505391 0.73282421 -0.66477662 0.0029054268
0.095180884 0.0052156746 0.71257699 0 0.14919946 0.73470122 -0.66178066 0.0027244301
0.23940054 -0.0080753267 0.68302071 0 -0.88865995 0.12386665 -0.44152075 0.025312625
-0.020246044 0.019319057 0.72735369 0 0.052913938 0.74070925 -0.66973865 0.0030032785
-0.016338147 0.01894787 0.72658515 0 0.052251287 0.74395901 -0.66617918 0.0033184022
-0.011127636 0.018452942 0.72556043 0 0.044353534 0.74741727 -0.66287267 0.0031332334
-0.005882293 0.01811257 0.72473109 0 0.04151462 0.75187081 -0.65800214 0.003479159
-0.0012619123 0.017936856 0.72415972 0 0.050521813 0.75327557 -0.65576166 0.0027419643
0.0025499687 0.01715377 0.72287059 0 0.048306558 0.75361347 -0.65554041 0.0030453575
0.00776048 0.016658843 0.72184587 0 0.06042232 0.75116694 -0.65734112 0.0029151286
0.012970999 0.016163915 0.72082114 0 0.084122308 0.74837548 -0.65791911 0.0032727248
0.018078268 0.015671849 0.72052836 0 0.10753552 0.74269849 -0.66093498 0.0029540011
0.023260251 0.015493482 0.72011721 0 0.11410171 0.73706627 -0.66611868 0.0031950928
0.028451174 0.015541613 0.71978974 0 0.11747488 0.73215878 -0.67092711 0.0029613371
0.03364712 0.013860196 0.7188139 0 0.10120258 0.72275406 -0.68365526 0.0027309903
0.0381805 0.013368309 0.71859539 0 0.087282836 0.71688205 -0.69170952 0.0018587931
0.042754725 0.012946844 0.71771276 0 0.090466686 0.71419781 -0.69407308 0.0016600192
0.048058182 0.01267916 0.7169739 0 0.092336282 0.72006524 -0.6877355 0.0021022861
0.05256933 0.012250453 0.71638334 0 0.092734739 0.72481769 -0.68267089 0.002561803
0.057259083 0.011961102 0.71612108 0 0.10034626 0.72589707 -0.68044412 0.0021553207
0.062195539 0.011266887 0.71628654 0 0.10913111 0.72723132 -0.67766136 0.0017054706
0.067354843 0.0099764764 0.71532857 0 0.11752151 0.72633356 -0.677221 0.0015479694
0.23900339 -0.0044098496 0.67985523 0 -0.91138643 0.067588575 -0.40596366 0.016316915
0.24134699 -0.0065501928 0.68111086 0 -0.90838957 0.086680345 -0.40904149 0.018744603
-0.060316898 0.026996642 0.73154926 0 0.088067248 0.655393 -0.75013608 0.0044514765
-0.049244545 0.025944918 0.72937179 0 0.11312252 0.67037719 -0.73334688 0.0041788123
-0.045254804 0.025667936 0.72943008 0 0.12214455 0.68643701 -0.71685773 0.0038805129
-0.041049413 0.024942815 0.72938311 0 0.12309508 0.69525576 -0.70814335 0.0036453372
-0.036129028 0.024533719 0.72765505 0 0.1205067 0.70421684 -0.69968337 0.0038118286
-0.031006768 0.024161756 0.72663927 0 0.10672945 0.71101886 -0.69502586 0.0044860672
-0.025412425 0.022356123 0.72671521 0 0.07387998 0.72645652 -0.68322951 0.0031327319
-0.0206379 0.023329288 0.7270118 0 0.061186142 0.72714275 -0.68375409 0.0033184721
-0.016024455 0.022323519 0.72674322 0 0.052943274 0.73288256 -0.67829216 0.0039732675
-0.010932393 0.02164343 0.72496235 0 0.049132559 0.7368176 -0.67430407 0.0040897629
-0.0058826506 0.021527171 0.72368455 0 0.047412179 0.74255234 -0.66810787 0.0033496437
-0.0012253672 0.021468014 0.72325587 0 0.047735006 0.74488801 -0.66547972 0.0034886892
0.0033887178 0.02120167 0.7225666 0 0.052091751 0.74120742 -0.66925192 0.0031944881
0.0083989054 0.020308226 0.72151291 0 0.068170518 0.74705106 -0.66126204 0.0027339414
0.013700083 0.018835455 0.72057581 0 0.087044992 0.74908525 -0.65673023 0.0029234271
0.018390395 0.019375026 0.72090924 0 0.099657774 0.74208707 -0.66285378 0.0028192517
0.023584068 0.018981665 0.72053134 0 0.11150056 0.73874438 -0.66469878 0.0029515806
0.027252376 0.018793166 0.71985924 0 0.11161626 0.735304 -0.66848332 0.00326109
0.044981182 0.016622514 0.71683586 0 0.097517438 0.72635168 -0.68037015 0.0023621577
0.046291262 0.016498059 0.71657825 0 0.099091716 0.72750241 -0.67891169 0.0023558615
0.23888144 -0.0010096729 0.67645723 0 -0.93595028 -0.0050504184 -0.35209608 0.0050720908
-0.078894384 0.032632649 0.73151791 0 0.097762913 0.63784909 -0.76393127 0.0040084021
-0.075096101 0.031666964 0.73134673 0 0.098354347 0.64380229 -0.75884461 0.0036999406
-0.070438348 0.030474395 0.73114467 0 0.09038958 0.65027153 -0.75430542 0.0043614563
-0.065065838 0.030148298 0.73052967 0 0.080014713 0.64734161 -0.75798839 0.0039515528
-0.060284972 0.03011775 0.72987103 0 0.087490164 0.647358 -0.75714797 0.0041894591
-0.055820897 0.029539555 0.72904694 0 0.098479688 0.65516061 -0.74904358 0.0045770472
-0.050582625 0.030054629 0.72928143 0 0.11539496 0.65977156 -0.74255341 0.0038912229
-0.045269355 0.0302293 0.72908807 0 0.13018493 0.66865098 -0.73209131 0.0039476263
-0.039882779 0.028417259 0.72961891 0 0.13385308 0.67802751 -0.72274619 0.0032510306
-0.035307862 0.027929544 0.72865224 0 0.13025935 0.68809146 -0.71383649 0.0033220733
-0.032092877 0.028004467 0.72742307 0 0.11531784 0.69086492 -0.71372795 0.0039942805
-0.0064542592 0.025401741 0.72324538 0 0.04507269 0.71981376 -0.69270235 0.0050247605
-0.0018690154 0.024966151 0.72234368 0 0.049567036 0.72164083 -0.69049084 0.0050326609
0.0037471652 0.024627358 0.72105384 0 0.062091388 0.73331571 -0.67704713 0.0036450378
0.0079565197 0.024032861 0.7204113 0 0.066987984 0.73833132 -0.67110312 0.0033811799
0.23826638 0.0025760829 0.67242771 0 -0.94217235 -0.02786411 -0.33396831 0.0023695619
-0.11366957 0.03883937 0.73559332 0 0.046261735 0.80310953 -0.59403276 0.019069603
-0.11041301 0.038530022 0.73495293 0 0.075145639 0.79173243 -0.60622841 0.020496249
-0.10324855 0.037849516 0.73354387 0 0.088210486 0.75195849 -0.65328205 0.018363643
-0.099696144 0.037383586 0.73353159 0 0.09423314 0.72469538 -0.68259549 0.01907805
-0.095803797 0.037207425 0.73258185 0 0.10284854 0.69764245 -0.70902544 0.016466465
-0.090005159 0.036591589 0.73093939 0 0.091088466 0.68919313 -0.71882939 0.014288398
-0.084470004 0.035460919 0.73042667 0 0.10017535 0.649647 -0.75360709 0.0075163683
-0.079709612 0.035291553 0.73020816 0 0.10377175 0.6527794 -0.7504068 0.0062611126
-0.075070173 0.035673559 0.73073041 0 0.093500122 0.66295719 -0.74279577 0.0065189102
-0.070306882 0.035191089 0.72995055 0 0.086111113 0.65718454 -0.74879462 0.0066899932
-0.065407202 0.035077095 0.72942162 0 0.077107042 0.65935099 -0.7478708 0.0067386772
-0.060141191 0.034289926 0.72925735 0 0.093681492 0.65180379 -0.75257927 0.0052193129
-0.055578627 0.034221888 0.72867036 0 0.11152438 0.66322571 -0.74006355 0.0054353951
-0.050072104 0.033925027 0.72765434 0 0.12737837 0.66690123 -0.73417807 0.0042468919
-0.046120487 0.033306271 0.72710872 0 0.13459066 0.66996145 -0.73009378 0.0036512574
0.23688531 0.0060692728 0.66961133 0 -0.94560498 -0.030137667 -0.32391796 0.0023562892
-0.15829962 0.046949983 0.74068558 0 0.12588449 0.83081436 -0.54212612 0.0080065941
-0.15375097 0.047599494 0.74256885 0 0.14186443 0.83996606 -0.52376664 0.0078996103
-0.14948465 0.046214432 0.74086964 0 0.14010818 0.84347522 -0.5185743 0.0091937706
-0.14590283 0.045455396 0.73995936 0 0.12720712 0.85107511 -0.50940108 0.0096031716
-0.13941151 0.045155883 0.7369709 0 0.079954386 0.85585773 -0.51099402 0.011467153
-0.13410905 0.046052128 0.73822165 0 0.055901766 0.87131959 -0.48752159 0.0091497265
-0.12937598 0.044674456 0.73676419 0 0.051410425 0.85963738 -0.50831157 0.011859384
-0.12452593 0.043751687 0.73614943 0 0.051074956 0.84360588 -0.5345282 0.015338145
-0.11945868 0.043093741 0.73512864 0 0.071892947 0.8437677 -0.53187168 0.014703041
-0.11505027 0.041702032 0.73369884 0 0.062494908 0.83319056 -0.54944313 0.01687848
-0.11013053 0.041974485 0.73366153 0 0.048211478 0.82811874 -0.55847549 0.017507313
-0.10466518 0.041921973 0.73336458 0 0.053615723 0.81314099 -0.57959223 0.019025346
-0.099552497 0.041707635 0.73393834 0 0.073686115 0.80341148 -0.59084719 0.019496625
-0.094452158 0.041223437 0.7325505 0 0.081031166 0.76714128 -0.63633972 0.020773573
-0.089955702 0.039920509 0.73099983 0 0.086635903 0.71939719 -0.68917483 0.016622843
-0.085366488 0.039582282 0.7304275 0 0.080951363 0.71013188 -0.69939947 0.016157053
-0.079823494 0.039265901 0.73023009 0 0.092476055 0.70558256 -0.7025677 0.014685005
-0.074278586 0.039074928 0.72970152 0 0.077097937 0.69909012 -0.7108649 0.013652619
-0.069709599 0.038613081 0.72882938 0 0.079852663 0.67210513 -0.73613739 0.0092128841
-0.06666217 0.037934244 0.72860074 0 0.086040355 0.6561538 -0.74970609 0.0073834672
-0.048976198 0.036254346 0.72512257 0 0.13815816 0.66588616 -0.73314935 0.0044222232
0.23696563 0.0092948377 0.66622972 0 -0.94401252 -0.03318673 -0.32823637 0.0024405648
-0.20618629 0.055369943 0.74641824 0 0.15533717 0.78004187 -0.60613942 0.0072855311
-0.20292969 0.055060625 0.74577773 0 0.13720544 0.77874303 -0.6121552 0.0064147753
-0.19315998 0.05413264 0.74385643 0 0.089908689 0.77644449 -0.623739 0.0028021119
-0.18275093 0.053019851 0.74249148 0 0.092552066 0.77382082 -0.62660623 0.002008104
-0.17851548 0.052890569 0.74204326 0 0.10056041 0.77774227 -0.62048733 0.0023135927
-0.17407784 0.052612245 0.74163854 0 0.1293342 0.78526318 -0.6055035 0.0036149989
-0.16891129 0.051383823 0.74021685 0 0.14120169 0.79796427 -0.58593106 0.0054551708
-0.1640884 0.051507354 0.74018884 0 0.1501068 0.8121835 -0.56376046 0.0063088895
-0.1591424 0.050929636 0.74101746 0 0.14744696 0.82939863 -0.53884816 0.0075326934
-0.13905878 0.048704416 0.73913252 0 0.080422826 0.87371457 -0.47974476 0.007943525
-0.11940205 0.046673924 0.73506975 0 0.059704937 0.8737396 -0.48271564 0.010090267
-0.11611174 0.045871228 0.73383164 0 0.062105548 0.85931039 -0.50766963 0.011324358
-0.10892712 0.04584235 0.73320675 0 0.02901444 0.85680199 -0.51482862 0.012843437
0.23677817 0.01314345 0.662485 0 -0.94211072 -0.022540212 -0.3345435 0.0025696915
-0.22598121 0.060153753 0.74754751 0 0.45180508 0.69505835 -0.55925494 0.027950054
-0.22332332 0.060950816 0.74743593 0 0.42410517 0.70727408 -0.56559539 0.026260911
-0.21765319 0.060421914 0.74646819 0 0.30587441 0.73980242 -0.59927726 0.020265367
-0.2132369 0.059852064 0.74699628 0 0.22611929 0.7602461 -0.60901213 0.013288828
-0.20756729 0.058871388 0.74677205 0 0.15490362 0.77565593 -0.61185193 0.0072862962
-0.20273532 0.058979332 0.74546301 0 0.14228065 0.78033513 -0.60896093 0.0068743173
-0.19970231 0.058602482 0.74514639 0 0.13145947 0.78019738 -0.61156386 0.0061128917
-0.19341159 0.057133317 0.7440691 0 0.091357134 0.7754153 -0.62480783 0.002335517
-0.18822081 0.057306916 0.74305999 0 0.084269606 0.77455229 -0.62687117 0.0019553229
-0.18390314 0.055997699 0.7428081 0 0.090840608 0.77461773 -0.62587172 0.0016139814
-0.1793586 0.056425929 0.74335217 0 0.10859735 0.77907288 -0.61745602 0.0020555041
-0.17341313 0.055531591 0.74179137 0 0.14143471 0.78719735 -0.60026366 0.0037985793
-0.16819957 0.055201113 0.74096179 0 0.17083596 0.7971307 -0.5791353 0.0058078761
-0.1642928 0.054994822 0.74038923 0 0.17844968 0.81335789 -0.55371904 0.0063179526
0.23541966 0.017271489 0.65957487 0 -0.94407672 -0.00091807166 -0.32972491 0.0032122878
-0.22558072 0.065461665 0.74755073 0 0.45611176 0.6987592 -0.55108762 0.031032093
-0.22255781 0.063878566 0.74595714 0 0.39718673 0.72092968 -0.56789339 0.026678875
-0.21824017 0.064292133 0.74624324 0 0.3369939 0.73466367 -0.58881599 0.024155024
-0.21507321 0.063711792 0.74666989 0 0.2810376 0.7439521 -0.60626161 0.022352133
0.23439151 0.019884735 0.65563947 0 -0.94545728 0.001068369 -0.32574448 0.0024925645
-0.22589646 0.068633378 0.74509251 0 0.46880364 0.69622779 -0.54358989 0.035171766
-0.2226457 0.067982107 0.74358606 0 0.41292495 0.70768636 -0.57330012 0.029809784
0.23333415 0.025801152 0.65261912 0 -0.94817734 -0.0090593901 -0.31761235 0.0030485897
0.23394442 0.022758752 0.65110952 0 -0.94759107 -0.0024664775 -0.31947646 0.0028459316
0.23312032 0.028251499 0.65034825 0 -0.94920641 -0.024297088 -0.31371453 0.0034807695
0.23438582 0.027507335 0.64787328 0 -0.94707566 -0.03221843 -0.3193897 0.0040352452
0.23415658 0.031759769 0.64512539 0 -0.9466899 -0.037004415 -0.32001415 0.0040822043
0.23235047 0.037072688 0.64217323 0 -0.95084912 -0.056521788 -0.30445245 0.0036318323
0.23395476 0.03468892 0.64139658 0 -0.94854522 -0.055677924 -0.31170809 0.0036416317
0.23142478 0.03855291 0.63891494 0 -0.95023268 -0.062262144 -0.30525619 0.003719711
0.2340388 0.037447304 0.63766587 0 -0.94995338 -0.062662445 -0.30604255 0.0032776524
0.23078284 0.042327046 0.63536596 0 -0.94933265 -0.065237828 -0.30742741 0.0032930218
0.23278171 0.041134357 0.63409424 0 -0.95013672 -0.064474858 -0.30509558 0.0035231519
0.23045751 0.045919627 0.63218093 0 -0.95061958 -0.060927171 -0.30431953 0.003355576
0.23183933 0.044412911 0.6311034 0 -0.9510172 -0.064219601 -0.30239397 0.0032931468
0.23010013 0.049790174 0.62883466 0 -0.95111692 -0.058078788 -0.30332053 0.0034500146
0.23186871 0.048023462 0.62765837 0 -0.95181769 -0.054675292 -0.30175102 0.0031729173
0.22943172 0.053202093 0.62536776 0 -0.95095432 -0.045594193 -0.30595273 0.002826317
0.22873753 0.056609094 0.62126672 0 -0.95055902 -0.042376086 -0.30763903 0.0024779188
0.23178503 0.054903209 0.62113428 0 -0.95019358 -0.041454244 -0.30889103 0.0026744695
0.22861555 0.060281634 0.61833507 0 -0.95077592 -0.029412942 -0.30848053 0.0026254426
0.23148689 0.058319032 0.61796868 0 -0.94796103 -0.023515936 -0.31751645 0.0027663135
0.22759998 0.063488632 0.61533904 0 -0.94635254 -0.0015378273 -0.3231324 0.0041288612
0.22685507 0.066985786 0.61104929 0 -0.92958504 0.038386237 -0.36660352 0.010404462
0.22586304 0.070951462 0.60755956 0 -0.89392757 0.10404956 -0.43596688 0.027175618
0.22649756 0.07576555 0.6056155 0 -0.85289735 0.19089352 -0.48592779 0.044708546
-0.24106054 0.12373862 0.69311869 0 0.79582399 -0.30724481 -0.52179003 0.070989572
-0.23944665 0.12489709 0.69402051 0 0.78123027 -0.31931421 -0.53639311 0.055341691
0.22661525 0.078133911 0.60177624 0 -0.78006923 0.28882998 -0.5550397 0.056582388
0.22929248 0.078529894 0.5993619 0 -0.72894305 0.35220248 -0.58702248 0.058196913
-0.24205202 0.12588158 0.68960118 0 0.80945361 -0.30657965 -0.50079316 0.061234746
-0.23902343 0.12689707 0.69044447 0 0.78308821 -0.33121768 -0.52637219 0.054814849
0.22644708 0.082908958 0.59831822 0 -0.69197184 0.38308567 -0.6118989 0.060296569
0.22950122 0.081628948 0.59648037 0 -0.65613174 0.42206901 -0.62557876 0.055719014
-0.24360485 0.13035211 0.68579173 0 0.82729119 -0.33805561 -0.44867322 0.052643649
-0.23863401 0.13119051 0.68613076 0 0.7560733 -0.37668273 -0.53522265 0.045442298
0.22690883 0.085918695 0.59583366 0 -0.66149431 0.41597816 -0.62400919 0.055858914
0.23034754 0.086078256 0.59469473 0 -0.58601445 0.47361946 -0.65747368 0.048964031
0.23497996 0.085778445 0.59271002 0 -0.50849855 0.51866531 -0.687325 0.041200813
0.24032173 0.085616022 0.59227133 0 -0.41222751 0.56329226 -0.71607989 0.035180036
0.24490818 0.084314317 0.59148848 0 -0.27521068 0.61779946 -0.73660237 0.017238645
0.24792251 0.083648711 0.59055173 0 -0.1934374 0.64984804 -0.73503721 0.010704123
-0.24328637 0.13422856 0.68394971 0 0.79846829 -0.36763868 -0.47674972 0.048683617
-0.23864217 0.13447669 0.6834631 0 0.74885464 -0.39498052 -0.53217202 0.040232595
0.22959551 0.089612156 0.59436715 0 -0.58734769 0.46346435 -0.66349339 0.047480229
0.23568064 0.089358717 0.59286159 0 -0.51458919 0.51915717 -0.68240291 0.041296989
0.23876601 0.088741094 0.59256363 0 -0.4543156 0.5450083 -0.7046724 0.037199482
-0.24253258 0.13771883 0.68176258 0 0.76231271 -0.40639609 -0.50370777 0.045679003
-0.23902266 0.13791034 0.68010283 0 0.72314686 -0.43259516 -0.53844225 0.041609276
-0.23555082 0.14002642 0.67944205 0 0.67124683 -0.46626711 -0.57621396 0.038028046
-0.23870116 0.14014563 0.67526412 0 0.72651923 -0.45809683 -0.51216906 0.041076645
-0.23516008 0.14190498 0.67585528 0 0.6417464 -0.49656916 -0.58444881 0.034255229
-0.23454742 0.14491883 0.67224813 0 0.63771337 -0.4896681 -0.59459794 0.023273963
-0.23077276 0.14587703 0.67240775 0 0.58044124 -0.50074482 -0.64213902 0.014821121
-0.23424485 0.14742872 0.66879022 0 0.61678696 -0.48760837 -0.61790931 0.014083708
-0.23032834 0.14774641 0.66804349 0 0.56070566 -0.51183265 -0.6508736 0.013098194
-0.22536871 0.14837667 0.66739631 0 0.48092335 -0.5359028 -0.69391698 0.011569533
-0.2215118 0.14939764 0.66696239 0 0.39924198 -0.55948269 -0.72635049 0.0092816455
-0.22518356 0.14939895 0.66272736 0 0.46688366 -0.51822007 -0.71656662 0.014820511
-0.22094059 0.15129665 0.66287589 0 0.38746861 -0.53654253 -0.74966007 0.012404647
-0.21771358 0.15351447 0.66195363 0 0.31835109 -0.53177619 -0.78477168 0.013363833
-0.22495419 0.15200284 0.65983069 0 0.41765347 -0.46367142 -0.78139263 0.025792083
-0.22144814 0.15245244 0.65902281 0 0.37617904 -0.47578833 -0.79505652 0.023877017
-0.21603288 0.15408018 0.65798438 0 0.29250228 -0.47654974 -0.82906139 0.024772488
-0.21082774 0.15463719 0.65672904 0 0.28118664 -0.47891521 -0.83160949 0.026206534
-0.20626788 0.1545442 0.65692854 0 0.25852254 -0.50836104 -0.82142264 0.0233154
-0.20195976 0.15464827 0.6558392 0 0.24900529 -0.51284468 -0.82157576 0.021599134
-0.19682524 0.15496656 0.65434003 0 0.25617889 -0.50225848 -0.82589889 0.021199394
-0.20659812 0.15541372 0.65272474 0 0.26079544 -0.41057569 -0.87373525 0.040489841
-0.20149648 0.15606752 0.65236133 0 0.24999458 -0.44498882 -0.85993469 0.032116372
-0.19700131 0.15607008 0.65040261 0 0.26474482 -0.40244073 -0.87632853 0.037064828
-0.19300105 0.15635535 0.64951146 0 0.26853094 -0.3881906 -0.881589 0.038923446
-0.18883656 0.15758529 0.64978927 0 0.27812624 -0.41040757 -0.86845344 0.035532888
-0.19697776 0.15708837 0.64695907 0 0.27585185 -0.27636382 -0.92061323 0.049247753
-0.19196887 0.15807566 0.64637613 0 0.27724576 -0.28133851 -0.91868573 0.052570704
-0.18768206 0.15862963 0.6463958 0 0.29247928 -0.30161846 -0.9074592 0.050891649
-0.18274143 0.15891698 0.64553827 0 0.27680588 -0.29088631 -0.91584039 0.051410723
-0.17869861 0.16051587 0.64408964 0 0.26700652 -0.23639905 -0.93425 0.053950649
-0.19083369 0.1606988 0.6417588 0 0.26894012 -0.05877991 -0.96136159 0.053935349
