# .PCD v0.7 - Point Cloud Data file format
VERSION 0.7
FIELDS x y z rgb normal_x normal_y normal_z curvature
SIZE 4 4 4 4 4 4 4 4
TYPE F F F F F F F F
COUNT 1 1 1 1 1 1 1 1
WIDTH 569
HEIGHT 1
VIEWPOINT 0 0 0 1 0 0 0
POINTS 569
DATA ascii
0.1179283 -0.12958387 0.70064449 0 -0.045420747 0.30201435 -0.95222068 0.020972641
0.12203288 -0.12810054 0.7028954 0 -0.04917185 0.28946742 -0.95592403 0.018760074
0.12790015 -0.12928092 0.70374793 0 -0.057019867 0.30932862 -0.94924426 0.018348731
0.1325015 -0.12803376 0.70409179 0 -0.079508916 0.32160965 -0.94352823 0.025200285
0.13883203 -0.12707113 0.70263088 0 -0.11971217 0.33261687 -0.93543309 0.02959487
0.14234138 -0.12855689 0.7035715 0 -0.1238987 0.3739261 -0.91914541 0.031324275
0.1474524 -0.12734453 0.70375013 0 -0.14471833 0.32433614 -0.93480617 0.030903818
0.15268669 -0.12656921 0.70316672 0 -0.12886286 0.28482172 -0.94987947 0.030991822
0.15738116 -0.12649201 0.70200008 0 -0.10576573 0.27772504 -0.95482057 0.035302583
0.16236898 -0.12626231 0.70208347 0 -0.1028531 0.28568366 -0.95278865 0.032094892
0.16721757 -0.12610546 0.70271432 0 -0.11262512 0.32041883 -0.94055688 0.033620577
0.17295 -0.12644954 0.70250005 0 -0.10283523 0.34595281 -0.93259931 0.040479299
0.17742382 -0.1258705 0.70300001 0 -0.13469243 0.31157109 -0.94062817 0.035503961
0.18077144 -0.12587048 0.70300001 0 -0.12693661 0.26419288 -0.95608014 0.039976042
-0.17937258 -0.12220725 0.70120007 0 0.9771142 0.12139401 -0.17467527 0.0095458142
0.11342877 -0.12455478 0.70484477 0 -0.068301849 0.29448843 -0.95321107 0.015722604
0.12481397 -0.12465787 0.70417231 0 -0.055540781 0.29646215 -0.95342821 0.015708435
0.13103089 -0.12282655 0.70479131 0 -0.064952321 0.29704607 -0.95265156 0.015153525
0.13699721 -0.12155233 0.70366752 0 -0.11579677 0.33395186 -0.93545038 0.023245607
0.14311457 -0.12285134 0.70459348 0 -0.10546626 0.32914367 -0.9383716 0.024302419
0.14751635 -0.12282962 0.70288706 0 -0.12899406 0.29913324 -0.94545215 0.026026282
0.15324108 -0.12299514 0.70400006 0 -0.1190139 0.29673198 -0.94751555 0.027619882
0.15754944 -0.1212116 0.70238537 0 -0.10385367 0.2858074 -0.95264292 0.027967462
0.16215377 -0.12195031 0.70356262 0 -0.10556937 0.28982225 -0.95124036 0.031300206
0.16769327 -0.12234333 0.70300013 0 -0.1013399 0.31802908 -0.94264925 0.030297084
0.17267656 -0.12247764 0.70275003 0 -0.10880179 0.32315332 -0.9400714 0.03679762
0.17731498 -0.12227211 0.70310009 0 -0.12585109 0.28576544 -0.94999981 0.031458873
0.18267368 -0.12294942 0.70229417 0 -0.12057818 0.25681788 -0.9589085 0.039537467
0.18722686 -0.12227676 0.70160007 0 -0.14165093 0.30898121 -0.94046038 0.050573822
0.1921999 -0.12172858 0.70100003 0 -0.14239232 0.32477394 -0.93501151 0.046921808
0.19717018 -0.12128414 0.70100009 0 -0.13181548 0.32685745 -0.93583596 0.04891701
0.20334123 -0.12177689 0.70200008 0 -0.11730401 0.36815825 -0.92233366 0.050032169
0.2072258 -0.12233286 0.70190001 0 -0.10420102 0.38363156 -0.91758865 0.05035403
0.21000001 -0.12066668 0.70000005 0 -0.087444924 0.33462852 -0.93828422 0.044069413
-0.1812478 -0.11665726 0.70286739 0 0.97725916 0.11641347 -0.1772356 0.0087377802
-0.17917526 -0.11833334 0.70200002 0 0.97600639 0.11929416 -0.18215486 0.0093513299
0.14207217 -0.11948511 0.70469284 0 -0.11939383 0.33859894 -0.93332517 0.021513585
0.1488432 -0.11771351 0.70409644 0 -0.14050992 0.30879211 -0.94069356 0.021536374
0.15289631 -0.11882825 0.70256215 0 -0.12022922 0.30507272 -0.94470924 0.024337338
0.15640987 -0.11740533 0.70293516 0 -0.12146228 0.30009297 -0.94614553 0.023957204
0.16251591 -0.11803743 0.7025938 0 -0.10948842 0.29857895 -0.9480837 0.027942372
0.16677731 -0.11770289 0.70326018 0 -0.11351025 0.32710925 -0.93814445 0.027414288
0.17217878 -0.11745773 0.70192116 0 -0.1265033 0.31561092 -0.94041848 0.029306114
0.17786831 -0.11795288 0.70370001 0 -0.13645872 0.29251057 -0.94647586 0.027141269
0.18215887 -0.1178671 0.70318753 0 -0.12789552 0.28817195 -0.94899929 0.030300299
0.18746668 -0.11783621 0.70300001 0 -0.13908313 0.30507633 -0.94211698 0.040386941
0.19258203 -0.11768798 0.70212507 0 -0.13606659 0.31191111 -0.94031763 0.042140838
0.19779038 -0.11760467 0.70162511 0 -0.13197984 0.31366724 -0.94031596 0.044150375
0.20320846 -0.11764751 0.70187509 0 -0.11990409 0.32167411 -0.93922776 0.04132111
0.20743176 -0.1173889 0.70033336 0 -0.08186993 0.30816418 -0.94780385 0.041356713
0.21015 -0.11608239 0.70050001 0 -0.09510801 0.26273555 -0.96016896 0.039580118
0.21779953 -0.11558048 0.7015 0 -0.083835669 0.26384842 -0.9609139 0.040508069
0.2208243 -0.11608239 0.70050001 0 -0.097016528 0.27582768 -0.95629847 0.041423593
-0.18272743 -0.11231142 0.70297861 0 0.9775641 0.11196016 -0.17841871 0.0084184008
-0.17958954 -0.11149239 0.70100003 0 0.97633237 0.12394027 -0.1772397 0.0071138917
0.14154279 -0.11449769 0.70419562 0 -0.12798975 0.33374372 -0.93393463 0.017009811
0.14666529 -0.11293076 0.70381081 0 -0.14324142 0.32054234 -0.93634099 0.017122949
0.15208316 -0.1130603 0.70401967 0 -0.12447155 0.31938705 -0.93941402 0.019773101
0.15777844 -0.11272085 0.70343602 0 -0.11948709 0.31610394 -0.94117016 0.022314619
0.16306078 -0.11311505 0.7041223 0 -0.10581681 0.32464421 -0.93989831 0.022271013
0.16756384 -0.11360806 0.7022289 0 -0.10754471 0.32932121 -0.9380734 0.024825163
0.17255875 -0.11151932 0.70112717 0 -0.12896416 0.32252043 -0.93773603 0.021917054
0.17905122 -0.11161628 0.70227301 0 -0.12577522 0.3121261 -0.94167823 0.023637809
0.18236955 -0.11264002 0.70400017 0 -0.12874343 0.30645767 -0.94313776 0.025314134
0.1876166 -0.11256924 0.70356256 0 -0.1287178 0.31830856 -0.93920785 0.029695969
0.19231996 -0.11155023 0.70181048 0 -0.14298885 0.31331882 -0.93882132 0.031693634
0.19754858 -0.11240641 0.70314294 0 -0.14419495 0.30072963 -0.94274575 0.036191218
0.20270374 -0.11246479 0.70244449 0 -0.121943 0.31111297 -0.9425171 0.036560595
0.20746897 -0.11202952 0.70115393 0 -0.10721359 0.25826994 -0.96010518 0.035987094
0.21230286 -0.11216001 0.70100015 0 -0.088975221 0.24112883 -0.96640587 0.036944211
0.21781844 -0.11225066 0.70156258 0 -0.0840891 0.23960166 -0.96722281 0.036512461
0.22276606 -0.11198357 0.70073348 0 -0.12571009 0.2181799 -0.96777815 0.031377006
0.22733334 -0.11133334 0.70000005 0 -0.16335987 0.23191911 -0.95891976 0.027515987
0.23000002 -0.11133334 0.70000005 0 -0.16347429 0.25947896 -0.95181233 0.026824409
-0.18534467 -0.10815033 0.70013511 0 0.97253156 0.13755651 -0.18777762 0.0052305143
-0.18253922 -0.10697356 0.70133692 0 0.97344834 0.13179658 -0.18715754 0.0048269322
-0.17939875 -0.10808509 0.70200008 0 0.97349548 0.13124888 -0.1872974 0.0056999559
0.14474794 -0.10925047 0.70412827 0 -0.14596152 0.31648901 -0.93729925 0.015048189
0.15090111 -0.10646176 0.70436561 0 -0.12987892 0.31427372 -0.94040596 0.010878185
0.15794003 -0.1056169 0.70416975 0 -0.11622165 0.32322478 -0.93915838 0.015390839
0.16367386 -0.10792635 0.70325273 0 -0.10894262 0.31933227 -0.94135982 0.019106099
0.16765426 -0.10763846 0.70246351 0 -0.11242174 0.30639714 -0.94524181 0.01849184
0.17239332 -0.10761207 0.70219147 0 -0.12074503 0.31092736 -0.94273257 0.01791366
0.17800234 -0.10708036 0.70227337 0 -0.13460483 0.31403515 -0.93982095 0.021221107
0.18298855 -0.10764867 0.70263076 0 -0.12649897 0.30751696 -0.94309664 0.021642443
0.18733677 -0.10805495 0.70196569 0 -0.13129403 0.3165504 -0.9394455 0.025260882
0.19130711 -0.10693493 0.70161617 0 -0.13995007 0.30660492 -0.94149214 0.025301373
0.19617099 -0.10766153 0.70280302 0 -0.15138601 0.30343387 -0.94074976 0.028760569
0.2018314 -0.10667416 0.70213854 0 -0.13861988 0.28439027 -0.94863409 0.029718518
0.20747857 -0.10708597 0.70275003 0 -0.13062637 0.25593704 -0.95782721 0.032458391
0.21214794 -0.10728082 0.70100015 0 -0.10974002 0.22473714 -0.96822017 0.031393155
0.21741413 -0.10752494 0.70045447 0 -0.096848808 0.19473585 -0.9760626 0.028579343
0.22290455 -0.10744835 0.70075011 0 -0.11833668 0.16896391 -0.9784925 0.022870218
0.2273737 -0.10718585 0.70012498 0 -0.14599334 0.20405394 -0.96801239 0.023980742
-0.18330434 -0.10212051 0.7013464 0 0.97492731 0.12215587 -0.18599617 0.0048164893
0.16125971 -0.1039232 0.70392352 0 -0.12704991 0.30439177 -0.94403601 0.013075557
0.16789192 -0.10251553 0.70238638 0 -0.11750965 0.31046343 -0.94329417 0.015027824
0.17287551 -0.1030246 0.70186329 0 -0.12106767 0.29726109 -0.94708949 0.016644105
0.17856404 -0.10349734 0.70306683 0 -0.1313529 0.30453873 -0.94339937 0.01908244
0.18242601 -0.10375972 0.70283806 0 -0.13049686 0.30366498 -0.94379985 0.018140282
0.18835923 -0.10259625 0.70213163 0 -0.13778003 0.30305225 -0.94296128 0.01914013
0.19300473 -0.10352568 0.70230258 0 -0.15491708 0.28864112 -0.94482124 0.023992795
0.19712 -0.10258286 0.70400012 0 -0.15696032 0.2595295 -0.95289445 0.024985887
0.20132914 -0.10296515 0.7016049 0 -0.15441559 0.25481763 -0.95458037 0.027719574
0.2075524 -0.10243715 0.70300001 0 -0.16008401 0.22000353 -0.96227413 0.030575147
0.21265705 -0.10278605 0.70173347 0 -0.13791889 0.19015835 -0.97201759 0.02685154
0.21732345 -0.10268079 0.70040005 0 -0.1091079 0.16283907 -0.98060131 0.022193648
0.2226866 -0.10267566 0.70006245 0 -0.12159117 0.14842324 -0.98142046 0.016998811
0.22692479 -0.10246042 0.70011109 0 -0.12637387 0.16514298 -0.97813976 0.018451825
0.23066668 -0.10066667 0.70000005 0 -0.11968319 0.18734077 -0.97497666 0.020329669
0.23755559 -0.10066667 0.70000005 0 -0.13415374 0.21593042 -0.96714878 0.021210169
0.24066669 -0.10133334 0.70000005 0 -0.17395355 0.24855435 -0.95286977 0.023715228
0.25266668 -0.10266668 0.70000005 0 -0.37954021 0.38411841 -0.84166628 0.042827263
-0.18255286 -0.097207859 0.70303124 0 0.97628832 0.12375098 -0.17761417 0.006468215
0.1713966 -0.099643663 0.704494 0 -0.11310567 0.30560124 -0.94541788 0.014150358
0.17846991 -0.098971009 0.70120168 0 -0.12711562 0.31118742 -0.94180888 0.015049825
0.18271351 -0.096898496 0.70113754 0 -0.14246809 0.31208649 -0.93931085 0.015072382
0.18856668 -0.097400926 0.70387626 0 -0.16474994 0.27853563 -0.94618988 0.018202594
0.19227976 -0.097832702 0.70178437 0 -0.1709882 0.27348495 -0.94655639 0.020338144
0.1977111 -0.098380178 0.70199823 0 -0.18574633 0.2512238 -0.94993937 0.023668855
0.20199983 -0.096615575 0.70174956 0 -0.19633318 0.20106854 -0.95970029 0.022839321
0.20773728 -0.097836688 0.70362514 0 -0.18962854 0.16342846 -0.9681592 0.022097893
0.21287037 -0.097732738 0.70287502 0 -0.16253552 0.16166107 -0.97336942 0.023192203
0.21771552 -0.097697459 0.70166683 0 -0.14078085 0.1401352 -0.98007292 0.019934574
0.22276966 -0.09752287 0.70137513 0 -0.10674788 0.1408283 -0.98426229 0.015332618
0.22755148 -0.097359493 0.70130777 0 -0.10382961 0.14531523 -0.98392218 0.013859968
0.23220669 -0.097419761 0.70062506 0 -0.094592661 0.15942903 -0.98266709 0.015388
0.23752414 -0.097411372 0.70056254 0 -0.13021159 0.20374334 -0.97032654 0.018177876
0.24226668 -0.096666671 0.69999999 0 -0.16446938 0.22540362 -0.96028286 0.020753259
0.25333333 -0.097333334 0.70000005 0 -0.36755207 0.26393417 -0.8917647 0.043113723
0.25666669 -0.096666671 0.70000005 0 -0.45180932 0.25504872 -0.8548792 0.050206222
-0.18287182 -0.091968618 0.70256162 0 0.97632945 0.13664357 -0.16765879 0.0065099029
0.19186474 -0.091859609 0.70461559 0 -0.19897704 0.2331363 -0.95186949 0.019708991
0.19716439 -0.091726974 0.70305729 0 -0.22565691 0.20892313 -0.95154089 0.021113487
0.20353942 -0.09256015 0.70254427 0 -0.21851137 0.1779577 -0.95947057 0.019291041
0.2083962 -0.092952393 0.70400006 0 -0.20062289 0.15885802 -0.96670306 0.020160589
0.21208239 -0.091824695 0.70302087 0 -0.18511647 0.13254322 -0.97373724 0.021632222
0.21720295 -0.092321157 0.70346677 0 -0.15861765 0.12494108 -0.97940302 0.019000089
0.22228192 -0.092394307 0.70300001 0 -0.12465397 0.11668424 -0.98531526 0.016530547
0.22747526 -0.092327856 0.70250005 0 -0.093008146 0.109957 -0.98957515 0.011294885
0.23206919 -0.092389472 0.70078582 0 -0.070752367 0.11875468 -0.99039966 0.010185576
0.23722424 -0.093155883 0.7003333 0 -0.10546972 0.14725076 -0.98345989 0.01089627
0.24244449 -0.094000004 0.70000005 0 -0.15361834 0.18052238 -0.97150046 0.015642302
0.25266668 -0.094000004 0.70000005 0 -0.35698628 0.22007935 -0.90781379 0.04270009
-0.18268785 -0.088519365 0.7028625 0 0.97461462 0.14731362 -0.16859742 0.0063475356
0.19785675 -0.087811485 0.70443797 0 -0.22919978 0.18766394 -0.95511764 0.019878119
0.2030604 -0.087580204 0.70375055 0 -0.24724087 0.1586934 -0.95587045 0.019932367
0.20741253 -0.087182008 0.70389903 0 -0.24548835 0.13778025 -0.95955819 0.020608386
0.21293299 -0.087219916 0.70195651 0 -0.20229195 0.12138764 -0.97177309 0.021667421
0.21787646 -0.086724252 0.70390916 0 -0.16777103 0.10562587 -0.98015106 0.020167714
0.22267017 -0.086571321 0.70132923 0 -0.11730966 0.10417346 -0.98761654 0.014347585
0.22789451 -0.088293269 0.70143592 0 -0.087667525 0.09228421 -0.99186593 0.010654018
0.23233172 -0.087767765 0.70042866 0 -0.074294895 0.096935421 -0.99251384 0.0088849142
0.23700002 -0.087444454 0.69999999 0 -0.075849898 0.09159717 -0.99290323 0.006655708
0.24311146 -0.086045116 0.70004976 0 -0.13438843 0.092191368 -0.98663086 0.012705564
0.25400001 -0.086000003 0.70000005 0 -0.37625802 0.085768402 -0.92253649 0.043543953
0.25933334 -0.087333336 0.70000005 0 -0.53442252 0.098461054 -0.83946294 0.054631185
-0.18576035 -0.081344038 0.70209152 0 0.97483236 0.156793 -0.15848619 0.0058900947
-0.18376575 -0.083577916 0.70201337 0 0.97596401 0.14917347 -0.15887552 0.006332302
0.19963381 -0.080260858 0.7047742 0 -0.26644784 0.12250996 -0.9560318 0.018550683
0.20333114 -0.081192881 0.70082808 0 -0.27547178 0.12327272 -0.95337248 0.02050335
0.20932269 -0.082736768 0.70400006 0 -0.23948553 0.1140142 -0.96418232 0.019212799
0.21286531 -0.082722306 0.70190185 0 -0.21461879 0.10908488 -0.97058696 0.020555945
0.217105 -0.082420088 0.70358342 0 -0.18444684 0.097140171 -0.97803026 0.019856837
0.22200039 -0.081319347 0.70114344 0 -0.12482741 0.089031644 -0.98817575 0.015214434
0.22747612 -0.082232229 0.70170283 0 -0.086500555 0.090796202 -0.99210578 0.0105898
0.23266359 -0.082317561 0.70059264 0 -0.068460271 0.084461831 -0.99407208 0.0076726875
0.23882303 -0.082585491 0.70025611 0 -0.080518655 0.077363245 -0.99374622 0.0071560061
0.24236232 -0.082342945 0.70008326 0 -0.13021751 0.080058217 -0.98824793 0.011018131
0.24666668 -0.080666669 0.70000005 0 -0.22763294 0.075603485 -0.97080755 0.026492143
0.25333336 -0.082666673 0.70000005 0 -0.39206687 0.068176217 -0.91740692 0.046946924
0.25633845 -0.08316014 0.70014292 0 -0.41947889 0.065392151 -0.90540671 0.046028275
-0.18545811 -0.079673335 0.70300001 0 0.97540122 0.1569564 -0.15478148 0.0055861971
-0.18447572 -0.077967636 0.70258093 0 0.97649151 0.15188316 -0.15295675 0.0055090734
0.20173655 -0.076327778 0.70317519 0 -0.2830542 0.080823094 -0.95569241 0.018451409
0.2078993 -0.077129357 0.70195615 0 -0.26821792 0.080748037 -0.95996815 0.021001402
0.21313331 -0.077202722 0.70211208 0 -0.23097542 0.084734261 -0.96926284 0.019284902
0.21868038 -0.076929733 0.70172656 0 -0.16179863 0.082475543 -0.98337126 0.018148515
0.22192675 -0.077697583 0.70120597 0 -0.13085958 0.084006496 -0.98783535 0.016110018
0.22763813 -0.077664778 0.70300001 0 -0.086370923 0.080431871 -0.99301094 0.010325276
0.23244962 -0.076982662 0.70216852 0 -0.073967054 0.072021239 -0.99465662 0.0067988695
0.23734602 -0.077863947 0.70060539 0 -0.07414297 0.071865283 -0.99465483 0.0071900138
0.24257818 -0.077606156 0.70107704 0 -0.14540426 0.076631874 -0.98640007 0.013740072
0.24694045 -0.077243946 0.70039999 0 -0.24933083 0.07371825 -0.96560848 0.026211202
0.25225642 -0.077179492 0.69999999 0 -0.36663508 0.071722619 -0.92759609 0.042687878
0.25560695 -0.077414051 0.70075005 0 -0.40443155 0.068578221 -0.91199344 0.045824297
-0.18584073 -0.0718631 0.70137906 0 0.97839743 0.14575613 -0.14660695 0.0057141674
-0.18466668 -0.074000008 0.70000005 0 0.97826022 0.1483101 -0.14495231 0.0052615944
0.19928429 -0.072331034 0.70430195 0 -0.28243744 0.052847859 -0.95782888 0.015706304
0.20277186 -0.072439782 0.70353281 0 -0.2977913 0.049068276 -0.95336914 0.017263317
0.20799999 -0.0726588 0.70316356 0 -0.27026254 0.058658801 -0.96099812 0.019021045
0.21219069 -0.073258355 0.70303303 0 -0.23539275 0.060354311 -0.97002453 0.018336529
0.21709925 -0.071856201 0.70193058 0 -0.18369341 0.06927342 -0.98053956 0.017912807
0.22235553 -0.071969271 0.70325243 0 -0.12702209 0.078220941 -0.98881084 0.013231887
0.22813076 -0.072821707 0.70320916 0 -0.087114573 0.082722798 -0.9927578 0.0065778415
0.23361826 -0.072951198 0.70202935 0 -0.064938821 0.082279131 -0.99449134 0.0055902009
0.2379465 -0.07190565 0.70171875 0 -0.072559454 0.087595522 -0.99351007 0.0050906045
0.24286366 -0.072258264 0.70250005 0 -0.13400795 0.077321582 -0.98795915 0.01013728
0.24828047 -0.0729229 0.70028436 0 -0.29381204 0.073485844 -0.95303428 0.031112207
0.25240001 -0.072399996 0.69999999 0 -0.39206487 0.064498864 -0.91767365 0.046461675
0.25857121 -0.072350703 0.70080078 0 -0.51671255 0.051327419 -0.85461903 0.052977335
-0.18643497 -0.067571953 0.70143521 0 0.97826719 0.14199796 -0.15109509 0.0062851282
0.2026501 -0.067504264 0.70339072 0 -0.28708121 0.038609345 -0.95712787 0.016901538
0.2074154 -0.067770213 0.70320761 0 -0.26981398 0.049534563 -0.96163756 0.017808096
0.21299203 -0.067353539 0.70222348 0 -0.22116649 0.056290664 -0.97361016 0.018084718
0.21740249 -0.067789584 0.70335662 0 -0.17374831 0.061055671 -0.98289555 0.016751293
0.22136803 -0.067180909 0.70243073 0 -0.12298889 0.070587531 -0.98989451 0.011962685
0.22730544 -0.067276835 0.70264465 0 -0.084731929 0.081534132 -0.99306226 0.0049589155
0.23200785 -0.067365319 0.70270413 0 -0.066874281 0.089500442 -0.99373913 0.0039185057
0.23778611 -0.068418823 0.701765 0 -0.070458278 0.092349753 -0.99323064 0.0048701949
0.24183343 -0.067201152 0.70137399 0 -0.11428787 0.087534405 -0.98958385 0.008453357
0.24682581 -0.067228809 0.70009398 0 -0.24470559 0.081867836 -0.96613503 0.024934821
0.25425965 -0.068663538 0.70052624 0 -0.42657098 0.075009391 -0.9013384 0.049148891
0.25918788 -0.067628101 0.70029145 0 -0.59433848 0.066624559 -0.80145055 0.051671471
-0.19000001 -0.060666669 0.70000005 0 0.97493875 0.14365236 -0.16987762 0.0045001861
-0.18777436 -0.063238338 0.70101976 0 0.97841674 0.13458288 -0.15680586 0.0054771421
0.20252118 -0.062857598 0.70362616 0 -0.28793997 0.036024775 -0.95697069 0.015582281
0.20852783 -0.062439989 0.70291245 0 -0.241991 0.048262149 -0.96907747 0.01735636
0.21198502 -0.062496215 0.70266885 0 -0.21575128 0.055295341 -0.97488147 0.016627386
0.21836057 -0.062144283 0.70245641 0 -0.13753304 0.058652423 -0.9887591 0.013621232
0.22297099 -0.063406974 0.70280063 0 -0.11257317 0.074953094 -0.99081242 0.009845023
0.22763811 -0.062935233 0.70300001 0 -0.073879071 0.083908677 -0.99373096 0.0041260738
0.23245627 -0.062169597 0.70283288 0 -0.060642149 0.093646742 -0.99375695 0.0038181215
0.23799698 -0.062288117 0.70289654 0 -0.085139789 0.086535826 -0.99260408 0.0045408173
0.24269649 -0.063036636 0.70134181 0 -0.15518062 0.064773835 -0.98576033 0.013357305
0.24706334 -0.062766314 0.70112509 0 -0.25073078 0.055193588 -0.96648216 0.025410375
0.2529625 -0.062459886 0.70070857 0 -0.44296679 0.035911761 -0.89581847 0.047250628
0.2550886 -0.060926672 0.70300001 0 -0.41266683 0.04916307 -0.9095543 0.042777851
-0.19076113 -0.056982704 0.70116675 0 0.97475654 0.14392711 -0.17068924 0.0039039189
-0.18908146 -0.058167033 0.7042309 0 0.97839785 0.13921046 -0.15283327 0.0053378339
0.20229152 -0.05856593 0.70385396 0 -0.28479001 0.038210101 -0.95782804 0.014693732
0.20820025 -0.058573324 0.7035796 0 -0.23268494 0.044833913 -0.97151822 0.016188413
0.21272933 -0.05741515 0.7026459 0 -0.19356856 0.037437029 -0.98037225 0.014542433
0.21667105 -0.057561915 0.70281702 0 -0.14902711 0.043134533 -0.98789179 0.013287128
0.22226281 -0.058188379 0.70208168 0 -0.10253303 0.055890594 -0.99315822 0.0099571962
0.22806385 -0.057784788 0.70220459 0 -0.067331515 0.066173151 -0.99553382 0.0049455664
0.23243448 -0.057605874 0.70333338 0 -0.051993437 0.073918909 -0.99590796 0.0037228893
0.23611692 -0.057320327 0.70246512 0 -0.075144134 0.075100459 -0.99434066 0.0040599299
0.24243465 -0.058093883 0.70309818 0 -0.14621982 0.059325278 -0.9874717 0.011753907
0.24736445 -0.057750173 0.7027936 0 -0.26367253 0.052802518 -0.963166 0.025072243
0.25219011 -0.057518713 0.70370609 0 -0.35678691 0.024921052 -0.93385333 0.035285342
0.25657231 -0.057130698 0.7013123 0 -0.53621912 0.039240364 -0.84316617 0.056999132
-0.19049326 -0.05244825 0.7025075 0 0.97498798 0.14753838 -0.1662253 0.0043218061
-0.18974477 -0.053638101 0.70400006 0 0.97620434 0.14263573 -0.16334033 0.0043513807
0.2032533 -0.052375607 0.7034204 0 -0.27515087 0.031541221 -0.96088356 0.014524808
0.20719373 -0.052767619 0.70244193 0 -0.23286159 0.029971017 -0.97204792 0.014423097
0.21255374 -0.052357815 0.70272481 0 -0.17635353 0.023042792 -0.98405719 0.011408814
0.21863949 -0.052962117 0.70384824 0 -0.13363564 0.046136342 -0.98995608 0.011700229
0.22257277 -0.052901201 0.70314521 0 -0.094501831 0.044699911 -0.99452072 0.0082862293
0.22706036 -0.052082226 0.70296854 0 -0.061960533 0.054596793 -0.9965843 0.0035296134
0.23229001 -0.05242151 0.7021786 0 -0.046144996 0.069690026 -0.99650079 0.0048588486
0.23776178 -0.052703302 0.70248526 0 -0.10240084 0.072131231 -0.99212462 0.007232361
0.24305549 -0.053550161 0.70291626 0 -0.17584066 0.045033257 -0.98338801 0.015003715
0.24668381 -0.051511817 0.70278603 0 -0.26873237 0.017853279 -0.96304941 0.028494516
0.25241339 -0.052524064 0.70358855 0 -0.39545855 0.01232064 -0.91840118 0.043530248
0.25845242 -0.051811438 0.70140761 0 -0.65576154 -0.0046866313 -0.7549535 0.064228825
-0.19088614 -0.04888257 0.70272505 0 0.97524434 0.14440264 -0.16747037 0.0038344802
-0.18963 -0.047631092 0.70457047 0 0.97467947 0.13837412 -0.17564899 0.0040156511
0.20289373 -0.048266675 0.70458126 0 -0.26478827 0.025845986 -0.96396017 0.014804772
0.20894994 -0.048542537 0.70210361 0 -0.21647531 0.032907814 -0.9757334 0.013760966
0.21242318 -0.046718124 0.70293975 0 -0.17137724 0.026788464 -0.98484123 0.011532683
0.21693644 -0.048717596 0.70342159 0 -0.13889578 0.03611182 -0.9896484 0.01090249
0.22278719 -0.046987247 0.70408547 0 -0.087447055 0.043168716 -0.99523342 0.0077211764
0.22871494 -0.047701411 0.70352221 0 -0.046741966 0.054260734 -0.99743223 0.0033103777
0.23225528 -0.046552412 0.70367366 0 -0.035720449 0.05766698 -0.99769664 0.003253388
0.23624976 -0.047903888 0.70255804 0 -0.083443545 0.061680663 -0.99460173 0.0062600113
0.24246937 -0.04771056 0.70205814 0 -0.20781521 0.025582762 -0.97783357 0.021075414
0.24733454 -0.047977488 0.70262045 0 -0.30726624 0.003610217 -0.95161664 0.033846501
0.25229168 -0.048171502 0.70265126 0 -0.42831326 -0.0061901677 -0.90360916 0.050365146
0.25679842 -0.04741412 0.70259643 0 -0.5920167 0.0048772194 -0.805911 0.062443603
-0.19150183 -0.044426396 0.70041883 0 0.97263986 0.14598238 -0.180723 0.0036102808
-0.1899263 -0.043475769 0.70228767 0 0.97350574 0.14309561 -0.17835422 0.0038860457
0.20356262 -0.04238994 0.70428157 0 -0.23358646 -0.0046383492 -0.97232491 0.01403599
0.20735191 -0.042415969 0.70408523 0 -0.21541539 0.0036028617 -0.97651589 0.014807714
0.2124854 -0.043100763 0.703511 0 -0.16451071 0.028213548 -0.98597169 0.011827033
0.21748911 -0.042969164 0.70296335 0 -0.11487087 0.041734416 -0.99250335 0.0081309685
0.22236629 -0.043075059 0.70309073 0 -0.079965115 0.044274576 -0.99581397 0.0061940113
0.2287221 -0.042169299 0.70412743 0 -0.04350289 0.046577796 -0.99796695 0.0037230707
0.23265526 -0.042910479 0.70400012 0 -0.030993406 0.046465602 -0.99843901 0.0036820348
0.23712337 -0.04300496 0.70228148 0 -0.11788709 0.046277374 -0.99194813 0.010342781
0.24246043 -0.041701034 0.70236695 0 -0.25289586 0.018065417 -0.96732479 0.028848885
0.24769334 -0.042558905 0.702712 0 -0.34966397 0.0077181784 -0.93684334 0.041485012
0.25276789 -0.043268964 0.70349407 0 -0.4765811 -0.020945139 -0.87888092 0.053223763
0.25747514 -0.042807892 0.70251262 0 -0.67302704 -0.067776792 -0.73650587 0.062696822
-0.19128729 -0.037691582 0.70089865 0 0.97424012 0.13345107 -0.18178831 0.00387068
0.2046712 -0.036444917 0.70491838 0 -0.19884825 -0.0059896172 -0.98001206 0.015281798
0.20615214 -0.036956489 0.70386922 0 -0.18819889 -0.0010044324 -0.98213041 0.01574165
0.21196733 -0.038074415 0.70387524 0 -0.15842912 0.027612651 -0.98698425 0.013118378
0.21726739 -0.037515011 0.70335984 0 -0.10552181 0.038356114 -0.99367696 0.0085168043
0.2220431 -0.036883295 0.703722 0 -0.073258817 0.044985425 -0.99629784 0.0065283622
0.2269084 -0.037783645 0.70379728 0 -0.043462072 0.04921373 -0.99784225 0.0030284848
0.23195806 -0.037958309 0.70396894 0 -0.035004918 0.044152401 -0.99841136 0.0037720704
0.23773246 -0.036848515 0.70372003 0 -0.12137242 0.053286802 -0.99117559 0.012196298
0.24159026 -0.036516782 0.70348948 0 -0.21574587 0.0592921 -0.9746477 0.026099734
0.24677035 -0.036870398 0.70383209 0 -0.31208327 0.034225244 -0.94943804 0.042280361
0.25236297 -0.037026841 0.70311868 0 -0.51476258 -0.042975627 -0.85625505 0.061299201
0.25802219 -0.037289433 0.70222181 0 -0.70801312 -0.063099965 -0.70337462 0.059528381
-0.19219558 -0.03324661 0.70251864 0 0.97655803 0.12660599 -0.17408425 0.0038086015
0.20211682 -0.03184478 0.70417452 0 -0.2011307 -0.026961999 -0.97919333 0.01631864
0.20766611 -0.033497233 0.7039414 0 -0.16667771 0.0084180301 -0.98597556 0.014845787
0.21199088 -0.032453887 0.70372343 0 -0.12851886 0.025913041 -0.99136841 0.012694249
0.2162827 -0.033317223 0.70289898 0 -0.097354688 0.042674687 -0.99433446 0.0096442141
0.22264433 -0.03273686 0.70308578 0 -0.061966531 0.051594079 -0.99674374 0.006291864
0.22766268 -0.033401035 0.70337945 0 -0.041480839 0.058668088 -0.99741536 0.0043115518
0.23277651 -0.032896213 0.70386589 0 -0.047226612 0.054022055 -0.99742234 0.003576918
0.23710482 -0.032528318 0.70378995 0 -0.12072714 0.053355239 -0.99125087 0.012815057
0.24263023 -0.032579247 0.70401716 0 -0.24719208 0.070069589 -0.96642977 0.03122641
0.24796005 -0.032629706 0.70318288 0 -0.39932743 0.027100775 -0.91640776 0.053172529
0.25282627 -0.032497376 0.70176041 0 -0.57389593 -0.025365515 -0.81853527 0.064597845
0.25709581 -0.032370627 0.70155036 0 -0.71498883 -0.083741017 -0.69410264 0.06773629
-0.1938262 -0.028473042 0.70280784 0 0.97737962 0.12276983 -0.17221056 0.0041896785
0.20187028 -0.026979893 0.70437258 0 -0.16503946 -0.020730169 -0.98606908 0.01664998
0.20689036 -0.028145611 0.70354176 0 -0.1463567 0.013119073 -0.9891448 0.015027631
0.21200213 -0.027943294 0.70381451 0 -0.1043737 0.034536321 -0.99393833 0.011517225
0.21643528 -0.027139967 0.7035557 0 -0.070966214 0.0483732 -0.99630505 0.0099163484
0.22175622 -0.027285676 0.70330656 0 -0.049857099 0.066706225 -0.9965263 0.0068359212
0.22681962 -0.027898796 0.70328182 0 -0.049798597 0.069402985 -0.99634498 0.0054100952
0.23274386 -0.028129123 0.70309174 0 -0.06472449 0.063662089 -0.99587041 0.0066496641
0.2364081 -0.027396834 0.70329446 0 -0.10700686 0.063680425 -0.99221689 0.011899021
0.24150924 -0.027634542 0.70341218 0 -0.2224852 0.065393545 -0.97274047 0.029579913
0.24726029 -0.027463233 0.70305377 0 -0.38757899 0.054930557 -0.92019838 0.049429778
0.25276333 -0.02734917 0.70213646 0 -0.5941174 -0.0044590672 -0.80436605 0.064701356
0.25679892 -0.02760696 0.70176929 0 -0.68881792 -0.011971266 -0.72483552 0.066403493
-0.19620225 -0.021420471 0.70089763 0 0.97418851 0.12582189 -0.1874188 0.0030144544
-0.19409896 -0.022621779 0.70275354 0 0.97700953 0.12105452 -0.17549413 0.0032193135
0.19416969 -0.022125959 0.70399302 0 -0.13085499 -0.035454996 -0.9907673 0.017710812
0.19850029 -0.022996068 0.70495307 0 -0.14201923 -0.021654593 -0.989627 0.018103458
0.20263852 -0.020120144 0.70477235 0 -0.11485703 0.027100585 -0.99301231 0.0147729
0.20767662 -0.023146249 0.70466638 0 -0.12142667 0.030700305 -0.99212545 0.012747405
0.21260415 -0.023264274 0.704377 0 -0.086508244 0.052250501 -0.99488002 0.010848408
0.21840319 -0.022571489 0.70363152 0 -0.057985172 0.066170044 -0.996122 0.0074580251
0.22048444 -0.021689534 0.70367593 0 -0.052053723 0.070724718 -0.99613678 0.0068922457
0.22677609 -0.022921612 0.7044372 0 -0.041818731 0.074036971 -0.9963783 0.0060916846
0.23282747 -0.023367323 0.70422018 0 -0.077594206 0.078379869 -0.99389917 0.0065000677
0.23805499 -0.023138724 0.70348203 0 -0.14123043 0.062388338 -0.98800898 0.015515739
0.24303637 -0.022949377 0.70330232 0 -0.25992858 0.074752562 -0.96273005 0.036663879
0.24761765 -0.021945043 0.70337951 0 -0.423803 0.059436928 -0.90380216 0.057986926
0.25234929 -0.022874227 0.70265949 0 -0.55926937 0.0087788822 -0.82893962 0.063566193
0.25577396 -0.022898788 0.70154548 0 -0.70135355 -0.031015314 -0.71213847 0.068903647
-0.19607154 -0.018357638 0.7016471 0 0.97427809 0.12563832 -0.18707556 0.0031567018
-0.19358414 -0.016746033 0.70333338 0 0.97430634 0.1229433 -0.18871155 0.0033385623
0.19277243 -0.019731849 0.70481706 0 -0.11723348 -0.032698788 -0.99256587 0.017279431
0.19783182 -0.019514561 0.70477974 0 -0.11983418 0.0055234083 -0.99277854 0.015494689
0.20385082 -0.017054677 0.70471978 0 -0.095402934 0.054686055 -0.99393553 0.013821288
0.20744722 -0.018871613 0.7047776 0 -0.090152919 0.064136915 -0.99386054 0.0125515
0.21487111 -0.019149989 0.70498407 0 -0.070349075 0.074333511 -0.99474901 0.009475722
0.21815979 -0.017455544 0.70391864 0 -0.052090045 0.087353684 -0.99481452 0.0098653845
0.22330534 -0.017497346 0.70351386 0 -0.042526416 0.085634254 -0.99541861 0.0087825926
0.22825868 -0.019266009 0.70392489 0 -0.047656856 0.081017442 -0.99557269 0.0070754369
0.23292151 -0.017577043 0.70416355 0 -0.099332489 0.080777846 -0.99177015 0.0091857538
0.23697512 -0.018621748 0.70406568 0 -0.14713925 0.07316725 -0.98640591 0.015673617
0.24310315 -0.017398968 0.70322025 0 -0.26879248 0.066887155 -0.96087289 0.037073161
0.24914354 -0.016965836 0.70302618 0 -0.47849816 0.05481055 -0.87637621 0.061644617
0.25317675 -0.018041186 0.70289171 0 -0.55690885 0.041685503 -0.8295269 0.062047772
0.25529155 -0.017371405 0.70133519 0 -0.69416112 -0.018353757 -0.71958554 0.069087066
-0.19596213 -0.011010552 0.70052361 0 0.97329849 0.12960142 -0.18945593 0.0029762709
-0.19368944 -0.012997959 0.70321578 0 0.97327662 0.12391383 -0.19333366 0.0031022469
0.18259959 -0.013980299 0.7046873 0 -0.10985687 0.061064709 -0.99206978 0.01738834
0.20211604 -0.011848669 0.70387119 0 -0.084693603 0.059939347 -0.99460256 0.014269518
0.20822851 -0.011216382 0.70418894 0 -0.074129634 0.084006332 -0.99370396 0.012850431
0.21405014 -0.013053447 0.70466447 0 -0.065802194 0.087453917 -0.99399292 0.0096245091
0.2189206 -0.012155652 0.70388323 0 -0.051246192 0.095957823 -0.9940654 0.0091286423
0.2242832 -0.012757659 0.70353031 0 -0.03879502 0.10138857 -0.99409026 0.0092655998
0.22862788 -0.013589859 0.70367789 0 -0.050398864 0.097572297 -0.9939515 0.0077453745
0.23252489 -0.013358474 0.70390803 0 -0.091761552 0.09149389 -0.9915688 0.010498933
0.23905116 -0.01314953 0.70406127 0 -0.19834667 0.071179047 -0.97754395 0.021674369
0.24330013 -0.012061467 0.70409155 0 -0.30397785 0.04657599 -0.95153993 0.041299451
0.24987222 -0.011594772 0.70245999 0 -0.54003388 0.028840896 -0.84114903 0.067993872
0.25302753 -0.013148088 0.70297831 0 -0.60923809 0.0024932248 -0.79298341 0.065924712
0.25590259 -0.013349133 0.70088869 0 -0.70132548 -0.029442368 -0.71223289 0.064289704
-0.19611621 -0.0066659614 0.70136064 0 0.97280484 0.13504277 -0.18818633 0.003707618
-0.1945045 -0.0093060005 0.70339739 0 0.97295487 0.13300546 -0.18886097 0.0033281874
0.1990293 -0.0070713945 0.70415878 0 -0.088154517 0.09396778 -0.99166459 0.013644519
0.20489056 -0.0072554052 0.70472467 0 -0.069485307 0.088201806 -0.99367619 0.01249766
0.209543 -0.0075219274 0.70482767 0 -0.062035952 0.094837613 -0.99355793 0.011843871
0.21262299 -0.0079878569 0.70470697 0 -0.057692777 0.098708339 -0.99344265 0.010693967
0.22007294 -0.0076503158 0.70498556 0 -0.04695506 0.10015289 -0.99386346 0.0088475086
0.22536577 -0.0081214011 0.70470238 0 -0.038631473 0.10455498 -0.99376857 0.0084514264
0.2306902 -0.0089888871 0.70498186 0 -0.063818663 0.096921317 -0.99324387 0.0084551135
0.23640937 -0.0058574528 0.70452422 0 -0.17250979 0.088795513 -0.98099732 0.018543476
0.24822897 -0.0073954258 0.70446229 0 -0.45947298 0.030905887 -0.88765389 0.05346968
0.25218958 -0.0071039177 0.70325869 0 -0.59746951 0.022477642 -0.8015765 0.066972569
0.2563808 -0.0072533572 0.7018671 0 -0.74671823 0.010250542 -0.66506153 0.067971781
-0.19664037 -0.0014677159 0.70251864 0 0.97033817 0.14115541 -0.1962624 0.0041586785
-0.19483145 -0.0046866671 0.70300001 0 0.97183549 0.1385882 -0.19060175 0.0036483114
0.20210019 -0.0041713789 0.7047255 0 -0.079052269 0.099823385 -0.99185991 0.012781148
0.21543363 -0.0018058494 0.70434672 0 -0.045601983 0.10159633 -0.99378008 0.010285692
0.23522455 -0.0048643649 0.70473325 0 -0.15286936 0.093308084 -0.98383158 0.015650226
0.24074306 -0.0038043857 0.70489502 0 -0.29478481 0.043843754 -0.9545573 0.038914233
0.24673244 -0.0036971311 0.70429897 0 -0.44064885 0.029123919 -0.89720702 0.053999856
0.25193542 -0.003313272 0.70322102 0 -0.63065654 -0.021831973 -0.77575493 0.065796778
0.25619102 -0.0022390676 0.70313859 0 -0.73366499 -0.029601933 -0.67886621 0.065676652
-0.19731987 0.0030871243 0.70268166 0 0.97135764 0.14533529 -0.18799444 0.0045701507
0.2416779 0.0030629337 0.70497698 0 -0.37778467 0.039633103 -0.92504483 0.049705844
0.24823666 0.0037758418 0.70370007 0 -0.59424317 0.0029550649 -0.80428004 0.067196369
0.25279322 0.0027254224 0.70301193 0 -0.71259117 -0.031705264 -0.70086288 0.066264972
0.25559127 0.0030954708 0.70142025 0 -0.79419732 -0.021996005 -0.60726172 0.070311047
-0.20028469 0.0080568567 0.70241064 0 0.9693976 0.15684523 -0.18885924 0.0044897618
-0.19772941 0.0073593203 0.70242864 0 0.96989614 0.15635149 -0.18669705 0.0045178914
0.21182415 0.0085712224 0.70471752 0 -0.049580116 0.097478256 -0.99400187 0.011817113
0.24851216 0.0061999625 0.70379806 0 -0.60449147 -0.019571139 -0.79637122 0.064074554
0.25260335 0.007525248 0.7026664 0 -0.73683417 -0.01215706 -0.67596418 0.064201407
-0.2007046 0.013145521 0.70035726 0 0.97522694 0.14544292 -0.16666919 0.0046255612
-0.19923177 0.013193742 0.70237231 0 0.97265017 0.14816067 -0.17888504 0.0044655767
0.24897242 0.012666101 0.70336312 0 -0.66379142 0.0036376393 -0.74790895 0.070788071
0.25289261 0.012390242 0.70184201 0 -0.78070474 -0.044455647 -0.62331682 0.067194022
0.25658172 0.01022929 0.70094901 0 -0.84338772 -0.062363748 -0.533674 0.060832698
-0.20049438 0.018669227 0.70143068 0 0.97390693 0.14129379 -0.1775994 0.0044323462
-0.19861192 0.017387461 0.70216674 0 0.97489703 0.13910948 -0.17385113 0.004987522
0.24943286 0.016977718 0.70358837 0 -0.68210155 0.0011821981 -0.73125654 0.068708628
0.25239795 0.016671726 0.70246637 0 -0.79555976 -0.020939635 -0.60551316 0.064015925
-0.2012445 0.023587093 0.70115137 0 0.9762103 0.12792437 -0.17506804 0.0045849499
-0.19863734 0.022791272 0.70383346 0 0.97643644 0.12839989 -0.17345123 0.005067707
0.24957596 0.024203926 0.70447457 0 -0.7029475 0.021265805 -0.71092391 0.063570254
0.25237498 0.022022391 0.7016421 0 -0.81331885 -0.03545149 -0.58073717 0.06413921
-0.20076051 0.028642414 0.70172817 0 0.97664106 0.12831199 -0.17236093 0.0049546477
-0.19935119 0.02712059 0.70310879 0 0.97602487 0.12984179 -0.1746895 0.0048315977
0.24973239 0.028789526 0.70300001 0 -0.7302345 -0.0044167722 -0.68318242 0.06046984
0.25231209 0.027827457 0.7019648 0 -0.82820678 -0.040428124 -0.55896258 0.053125501
-0.20155546 0.0328262 0.70199406 0 0.97714543 0.1296104 -0.16848755 0.0047914223
0.24912667 0.031453412 0.70258868 0 -0.74184912 -0.054989904 -0.66830826 0.066088155
0.25105065 0.032280095 0.70066756 0 -0.82805115 -0.070798181 -0.55616438 0.057414625
-0.20272949 0.036740601 0.7033965 0 0.98063463 0.11547235 -0.15818283 0.0046669771
0.24942428 0.03799884 0.70221901 0 -0.78690529 -0.049175177 -0.61511129 0.059773691
0.2513158 0.037481666 0.70229125 0 -0.83948982 -0.07324139 -0.5384168 0.056283101
-0.20359287 0.042544167 0.70215988 0 0.98019296 0.12259853 -0.15553512 0.0049080364
0.24892795 0.042373233 0.70169705 0 -0.80992347 -0.06949354 -0.58240414 0.06881164
-0.20264244 0.046703689 0.70205575 0 0.97745633 0.13851123 -0.15935388 0.0049697235
-0.1996181 0.046065718 0.70100003 0 0.97738737 0.13495684 -0.16279005 0.0048340736
0.24789706 0.048167169 0.70184827 0 -0.84715271 -0.080117658 -0.52527463 0.064032488
0.2502532 0.04725986 0.7024281 0 -0.82867783 -0.084759533 -0.55327123 0.062638074
-0.20569001 0.053600479 0.70350003 0 0.97657812 0.13816392 -0.16494203 0.0044733891
-0.20425871 0.051245578 0.70249808 0 0.97555399 0.14593352 -0.16431019 0.0048233517
0.2479936 0.052118994 0.70321798 0 -0.81625676 -0.069880873 -0.57344717 0.058103498
0.25047925 0.052599147 0.70157087 0 -0.90767246 -0.089413397 -0.41004384 0.052998602
-0.20586899 0.057462104 0.70320004 0 0.97526896 0.13935342 -0.17155518 0.0048339949
-0.20474246 0.056381822 0.70120686 0 0.97392434 0.14244136 -0.17658369 0.0044355914
0.24761359 0.057191528 0.70269591 0 -0.85213614 -0.034518272 -0.5221805 0.057088457
-0.206534 0.06229461 0.70333338 0 0.97737229 0.12917334 -0.16750398 0.0047926423
0.24733327 0.06254261 0.70197999 0 -0.90116608 -0.044479035 -0.43118602 0.05079817
-0.20646022 0.066242069 0.70426381 0 0.97770792 0.12908563 -0.16560221 0.0041744588
0.24783726 0.067653939 0.70177758 0 -0.92038691 -0.043407556 -0.38859206 0.044884525
-0.20685178 0.071973123 0.70317793 0 0.97827524 0.12188233 -0.16769677 0.0042544855
0.24472383 0.073752388 0.70400006 0 -0.82354081 -0.038022183 -0.56598133 0.053652436
0.24685505 0.072420061 0.70198524 0 -0.9012351 -0.034318391 -0.43196926 0.05068516
-0.20717797 0.077927276 0.70299095 0 0.97950518 0.10353539 -0.1727713 0.0038209765
0.24445562 0.077909343 0.70400006 0 -0.83132577 -0.0080937892 -0.55572665 0.055161145
0.24656987 0.07785999 0.70292801 0 -0.86832744 -0.025875883 -0.49531585 0.047841646
-0.20798807 0.082642548 0.70170891 0 0.97943932 0.10364395 -0.17307973 0.0033738944
0.24485996 0.083316721 0.70300543 0 -0.87967718 -0.032087065 -0.47448757 0.048225798
0.24657556 0.081343137 0.70365202 0 -0.87914693 -0.058579545 -0.47293669 0.046703644
-0.2085169 0.086769864 0.70180106 0 0.97973752 0.10042661 -0.17328836 0.0031657876
0.24450713 0.086802006 0.70337617 0 -0.87783062 -0.072213374 -0.47349611 0.050254032
0.24744843 0.08626841 0.70305604 0 -0.9087671 -0.071422428 -0.41114634 0.042576727
-0.20952189 0.09213116 0.7023114 0 0.97944194 0.11386622 -0.16651753 0.0031733639
0.24416032 0.09129598 0.70264971 0 -0.87609661 -0.10053901 -0.47153634 0.053621531
0.24635509 0.092100285 0.70294678 0 -0.8999871 -0.099428616 -0.42442554 0.046462696
-0.21079132 0.096181691 0.70328647 0 0.9790892 0.12072563 -0.16373657 0.0034687021
-0.20819107 0.097879432 0.70200008 0 0.97834319 0.12180045 -0.16735962 0.003951259
0.24436682 0.097540267 0.70226145 0 -0.91812956 -0.11463681 -0.37933689 0.04152669
0.24559602 0.096010059 0.70232046 0 -0.91495967 -0.11510894 -0.38677999 0.042514764
-0.20933127 0.10321604 0.70294058 0 0.97606534 0.12583709 -0.17737411 0.0043942695
0.2435382 0.10227339 0.70272517 0 -0.9244445 -0.11448167 -0.36372563 0.046584558
0.24572343 0.10195485 0.70402312 0 -0.92884517 -0.11445035 -0.352346 0.042802759
-0.2115532 0.10706668 0.70200002 0 0.97595829 0.12011983 -0.18186973 0.0045271018
-0.20978048 0.10901584 0.70272684 0 0.97637337 0.11587601 -0.18239433 0.0057304357
0.24306709 0.1069127 0.70267677 0 -0.92978287 -0.11970261 -0.34810203 0.049554475
-0.21533334 0.11133334 0.70000005 0 0.97950059 0.12268015 -0.15977544 0.0065306076
-0.21229479 0.11259992 0.70201474 0 0.97734541 0.11188677 -0.17965913 0.008416553
-0.20907605 0.11348818 0.7036469 0 0.97635818 0.10992264 -0.1861226 0.0085155619
0.23936002 0.11264 0.70400006 0 -0.88889033 -0.07758414 -0.45150271 0.065317653
0.24274178 0.11280055 0.70246238 0 -0.94572103 -0.090742283 -0.31205401 0.048273787
-0.2130675 0.11812927 0.70296192 0 0.9820779 0.070716545 -0.17470618 0.015130809
0.23943883 0.11787596 0.70325005 0 -0.91039622 -0.046791948 -0.41108277 0.059288673
0.24216872 0.11808475 0.70269406 0 -0.94477338 -0.082370229 -0.31720403 0.048727088
-0.21522287 0.12269715 0.70400006 0 0.98552585 -0.012729094 -0.16904683 0.023938034
-0.21386147 0.12265581 0.70417237 0 0.98372549 -0.024257619 -0.17803289 0.02469448
0.2394651 0.12073683 0.70300007 0 -0.92574614 -0.067345969 -0.37210017 0.052160546
0.241034 0.12353303 0.70366669 0 -0.92990053 -0.05215688 -0.36409432 0.053804357
0.24507636 0.12295988 0.70214921 0 -0.97596228 -0.053946562 -0.21115762 0.031298604
-0.21248631 0.12709866 0.70323205 0 0.97418386 -0.13482347 -0.18107614 0.03241808
0.24194942 0.12665749 0.70191038 0 -0.97181952 -0.063151836 -0.22710958 0.032147069
-0.21753989 0.13405523 0.70213068 0 0.9509666 -0.22370474 -0.21358511 0.04288362
-0.21268186 0.13252932 0.70297527 0 0.93977499 -0.27491131 -0.20309298 0.043244943
0.24079859 0.13248877 0.70197904 0 -0.96885496 -0.083215922 -0.23322777 0.038881849
-0.21266174 0.13742197 0.70220655 0 0.88975585 -0.38626024 -0.24318184 0.048764493
-0.20815703 0.13644999 0.70403087 0 0.88059038 -0.41887325 -0.22159801 0.045689195
0.23906055 0.13709179 0.70196605 0 -0.96378851 -0.10586999 -0.24475101 0.038053941
0.24090773 0.13756478 0.70303422 0 -0.96448159 -0.11143249 -0.23949523 0.034069367
-0.21030001 0.14220287 0.70100003 0 0.77749598 -0.5758279 -0.25282854 0.058061514
-0.20726585 0.14263274 0.70179397 0 0.72971821 -0.63783789 -0.24632116 0.050286718
-0.20305982 0.14347821 0.70226359 0 0.66368473 -0.70900553 -0.23839809 0.048204187
0.23806041 0.14388502 0.70110714 0 -0.96647489 -0.14131239 -0.21437606 0.03006134
0.24083462 0.14204034 0.70132416 0 -0.97287279 -0.13913102 -0.1848273 0.025233036
-0.2059181 0.14641716 0.70200002 0 0.62890315 -0.74324292 -0.22819039 0.043012936
-0.20452732 0.14849111 0.70104265 0 0.61227524 -0.76098585 -0.21452163 0.038145129
-0.19811976 0.14672871 0.70241308 0 0.50551707 -0.83681679 -0.2102146 0.038372412
-0.19473878 0.14938948 0.70335186 0 0.37843621 -0.9025625 -0.20534596 0.033462677
0.23822236 0.14759101 0.70228887 0 -0.95910287 -0.14055885 -0.24569248 0.034177307
0.24234492 0.14649847 0.70214969 0 -0.97229666 -0.15437473 -0.175521 0.022443343
-0.20088856 0.15091607 0.70237255 0 0.49304229 -0.84216744 -0.21831903 0.031898033
-0.19641048 0.15149999 0.70250696 0 0.40095767 -0.89082778 -0.21367896 0.03302234
-0.19231547 0.15241127 0.70255435 0 0.28252184 -0.93808424 -0.20044787 0.024409998
-0.18739471 0.15278409 0.70313567 0 0.19968095 -0.96161067 -0.1882349 0.018759906
-0.18246424 0.15319648 0.70237696 0 0.15164194 -0.97267604 -0.17580079 0.016401118
-0.17680265 0.15314308 0.70277262 0 0.11800424 -0.97800666 -0.17198256 0.012255
-0.17267111 0.15277541 0.70322603 0 0.12024976 -0.97651398 -0.17877477 0.011091467
-0.16905144 0.15254293 0.70401478 0 0.12450198 -0.97528994 -0.18250659 0.010650859
-0.16198024 0.15402764 0.70155227 0 0.13415585 -0.97288221 -0.18842092 0.010949511
-0.15858763 0.15416852 0.70301902 0 0.12972033 -0.9720937 -0.19546475 0.010474189
-0.15443198 0.15441439 0.70129532 0 0.12238713 -0.97674298 -0.17605253 0.010677098
0.23790741 0.15250698 0.70274276 0 -0.95901871 -0.13478267 -0.24923249 0.035835691
-0.19066668 0.15533334 0.70000005 0 0.21247305 -0.95859092 -0.18962768 0.019853242
-0.18733335 0.15533334 0.70000005 0 0.1780653 -0.96615827 -0.18663053 0.016639372
-0.18292716 0.15555525 0.70100003 0 0.14797778 -0.97385037 -0.1723894 0.015256728
-0.17752263 0.15549977 0.70074999 0 0.11944484 -0.97612512 -0.18141875 0.011843843
-0.1733509 0.15592563 0.70201612 0 0.1222328 -0.97660255 -0.17693657 0.010746443
-0.16776501 0.15591231 0.70252585 0 0.12010344 -0.97647077 -0.17910923 0.010721723
-0.16354075 0.15700328 0.70318246 0 0.12488256 -0.97386563 -0.18971086 0.011238702
-0.15782502 0.15629429 0.70209336 0 0.14110453 -0.97283679 -0.18351611 0.0098048979
-0.15270057 0.15708992 0.70221692 0 0.12219358 -0.97682911 -0.17570914 0.01101872
-0.14702451 0.1575599 0.70220017 0 0.11449593 -0.97975695 -0.16421662 0.01109373
-0.1437934 0.15845308 0.70262182 0 0.10149479 -0.98115832 -0.16439931 0.011039106
-0.13828339 0.15808719 0.70315063 0 0.1010373 -0.98216802 -0.15854783 0.011613122
-0.13269326 0.15781869 0.70240498 0 0.099425025 -0.98258257 -0.15699039 0.012908653
-0.12734421 0.15825576 0.70272768 0 0.10047983 -0.98011649 -0.17110088 0.012971601
-0.1226553 0.15943936 0.70184517 0 0.11512766 -0.9754287 -0.18784136 0.013248542
0.23641644 0.15683249 0.7020492 0 -0.96078241 -0.13336186 -0.24312915 0.030085284
-0.14600001 0.16066667 0.70000005 0 0.10098817 -0.98239255 -0.15718251 0.010217091
-0.14186762 0.16056144 0.70100003 0 0.098517552 -0.98281097 -0.15613061 0.01050995
-0.1388882 0.16107868 0.70180005 0 0.097679794 -0.98285359 -0.15638877 0.011454137
-0.13018572 0.1608962 0.70100003 0 0.10862333 -0.97979921 -0.16791189 0.012940666
-0.12775652 0.16120224 0.70233339 0 0.10649774 -0.97977185 -0.16942662 0.013589916
-0.12215173 0.16118526 0.70302868 0 0.12099326 -0.97424299 -0.19029224 0.014003966
-0.11671152 0.16180819 0.70215285 0 0.1326784 -0.97157806 -0.1960427 0.014426223
-0.11209119 0.1623244 0.70244503 0 0.12848063 -0.97231346 -0.19519061 0.014583116
-0.10729712 0.16311352 0.70167559 0 0.15078333 -0.96873403 -0.197025 0.012827382
-0.1026098 0.16321008 0.70265853 0 0.15466993 -0.96722418 -0.2013818 0.012049646
-0.098107591 0.16287729 0.70248169 0 0.13962309 -0.97271413 -0.18529037 0.010515108
-0.092919469 0.16436173 0.70291126 0 0.12855798 -0.97662324 -0.17227797 0.010638325
-0.087514222 0.16452277 0.70240003 0 0.13070226 -0.97573566 -0.17566107 0.010469025
-0.083294526 0.16446546 0.70327735 0 0.12886132 -0.97808188 -0.16355585 0.010109127
-0.076254934 0.16379538 0.70312887 0 0.16123897 -0.97418678 -0.15799364 0.0093427729
-0.07299909 0.16455394 0.70441604 0 0.14989868 -0.97590333 -0.15856534 0.0097070513
0.2343343 0.16490191 0.70100003 0 -0.96472317 -0.1399557 -0.22298367 0.025218396
0.23613301 0.1629096 0.70181614 0 -0.9666906 -0.13470262 -0.21763386 0.026460407
-0.11044446 0.16644447 0.70000005 0 0.14155126 -0.9709422 -0.19296235 0.013768055
-0.10718744 0.16618896 0.70080006 0 0.14161929 -0.9710291 -0.19247442 0.012459009
-0.10288858 0.16587448 0.70060009 0 0.14195459 -0.97080714 -0.19334497 0.010650004
-0.098666668 0.16600001 0.70000005 0 0.13987733 -0.97118407 -0.19296549 0.010411775
-0.090973862 0.1657092 0.70206749 0 0.13070139 -0.97565305 -0.17611982 0.010418038
-0.087371968 0.16648637 0.70194936 0 0.13177772 -0.97608638 -0.17288737 0.01047447
-0.083386183 0.16674869 0.7019285 0 0.12810028 -0.97726864 -0.16892688 0.0097352918
-0.077879369 0.16661328 0.70214868 0 0.14939182 -0.97552985 -0.16131759 0.0092955101
-0.07218577 0.16749546 0.70194578 0 0.14562118 -0.97831988 -0.14725709 0.010233107
-0.067058444 0.16801451 0.70277429 0 0.14225377 -0.97885627 -0.14698385 0.010316985
-0.062328331 0.16827039 0.70196295 0 0.12960801 -0.98140264 -0.14160025 0.010719036
-0.059672385 0.16963048 0.70400006 0 0.1231078 -0.98127306 -0.148147 0.010737108
-0.05080153 0.16863742 0.70277745 0 0.109313 -0.9823603 -0.15171976 0.011226589
-0.046189886 0.16955145 0.70286274 0 0.11020045 -0.98346686 -0.14369722 0.010062168
-0.04231143 0.16959062 0.70381099 0 0.10231545 -0.98298377 -0.15255994 0.009689644
0.23400001 0.16733335 0.70000005 0 -0.96978766 -0.1515315 -0.19118038 0.020374868
0.23695551 0.16917342 0.70332682 0 -0.95967239 -0.16289462 -0.22911625 0.021664673
-0.076850489 0.17040478 0.70166671 0 0.15304428 -0.97550327 -0.15802127 0.0088627562
-0.072700642 0.17008096 0.70033336 0 0.1467891 -0.97805583 -0.1478499 0.0096632624
-0.066714764 0.17012143 0.70050001 0 0.13702422 -0.97987366 -0.14516181 0.0095692165
-0.060451031 0.17009911 0.7000953 0 0.12305481 -0.98304099 -0.13597041 0.010858628
-0.056747627 0.17024288 0.70100009 0 0.12442202 -0.98243409 -0.13907668 0.01127437
-0.053266574 0.17129759 0.70246911 0 0.11417378 -0.98246151 -0.14742365 0.011151223
