# .PCD v0.7 - Point Cloud Data file format
VERSION 0.7
FIELDS x y z
SIZE 4 4 4
TYPE F F F
COUNT 1 1 1
WIDTH 339
HEIGHT 1
VIEWPOINT 0 0 0 1 0 0 0
POINTS 339
DATA ascii
0.28166297 0.13305648 0.59350002
0.28126708 0.13342074 0.59600008
0.2815713 0.1372766 0.59561551
0.28165677 0.14242812 0.59724998
0.28230959 0.14702681 0.59800005
0.28367704 0.15022308 0.59900004
0.28136942 0.1345917 0.60300004
0.27943298 0.13838536 0.60400003
0.2814098 0.13735531 0.60269243
0.2795406 0.14295322 0.60320008
0.28102183 0.14214361 0.60311121
0.27990463 0.14734605 0.60050005
0.28091356 0.14787893 0.60100001
0.27943298 0.15147702 0.60400003
0.28319782 0.15245804 0.60200006
0.28522229 0.15368524 0.60100001
0.28357351 0.15765214 0.60258341
0.28522229 0.15723798 0.60100001
0.28344071 0.16256829 0.60269248
0.28522229 0.16256706 0.60100001
0.283346 0.16737109 0.60337502
0.28574666 0.16842039 0.60160005
0.28354067 0.17205274 0.60353345
0.28641459 0.17299265 0.60225004
0.28352037 0.17623217 0.60400003
0.28648072 0.17736468 0.60340011
0.28688788 0.18073408 0.60366672
0.27935964 0.13795564 0.60733336
0.28022695 0.1369808 0.60833335
0.2787427 0.14241837 0.60753852
0.27876386 0.1470778 0.60738468
0.28084522 0.14803708 0.60574996
0.27960879 0.15162545 0.60699999
0.28143251 0.15258007 0.60650003
0.27951583 0.15918216 0.60766673
0.28174958 0.15721427 0.60600001
0.27936211 0.16281593 0.60733342
0.28134942 0.16223395 0.60553849
0.27926478 0.16734937 0.60700011
0.28109983 0.16782145 0.60500002
0.27942342 0.17173675 0.60725003
0.28094378 0.17337163 0.60611111
0.27932194 0.17553104 0.60900003
0.28210139 0.17768142 0.60670596
0.28591645 0.17914662 0.60500002
0.28297368 0.18210405 0.6069091
0.28670692 0.18290184 0.60625005
0.28320679 0.18582909 0.60866666
0.28760147 0.18733032 0.60811764
0.29023105 0.1911311 0.60900003
0.27828133 0.13796645 0.61137503
0.28023925 0.1369793 0.611
0.27741113 0.14196129 0.61120003
0.27851555 0.14697018 0.61166668
0.27917379 0.15214618 0.61285722
0.28096196 0.15329525 0.61125004
0.27920404 0.15880607 0.61300004
0.28102067 0.15749809 0.61237502
0.27845335 0.16274098 0.61218184
0.27828893 0.16751525 0.61260003
0.27853319 0.17225973 0.6111111
0.27782652 0.17734599 0.61207694
0.28064463 0.1785154 0.611
0.27882624 0.18195526 0.61299998
0.28167912 0.18267238 0.61172736
0.28242919 0.18744639 0.61292863
0.28550905 0.18894958 0.611
0.2836377 0.19111003 0.61375004
0.28757292 0.19158812 0.61237502
0.29151529 0.19358645 0.61242861
0.29279977 0.19624995 0.61375004
0.27849907 0.1473299 0.61871427
0.28031999 0.14776 0.61833334
0.27882069 0.15337235 0.61762506
0.28021243 0.15036003 0.61900002
0.27832204 0.15756792 0.61737502
0.28181875 0.15593641 0.61533338
0.27483961 0.16412111 0.61800003
0.27672324 0.16214229 0.61688232
0.27483961 0.16777432 0.61800003
0.27646065 0.16744354 0.61592317
0.27483961 0.17325413 0.61800003
0.27686727 0.17244136 0.61618751
0.2766633 0.17686588 0.61750007
0.27691785 0.18292721 0.61590922
0.27856216 0.18660121 0.6171667
0.28099492 0.1888791 0.61666667
0.28250262 0.1918222 0.61785722
0.28715298 0.19428721 0.6158334
0.28423911 0.19692126 0.61857146
0.28790063 0.19762753 0.61699998
0.29215074 0.19805489 0.61560005
0.28799644 0.20147946 0.61866665
0.29215181 0.20260635 0.61690009
0.28842595 0.20748305 0.61900002
0.29164216 0.20762528 0.6183334
0.2863726 0.2109389 0.61900008
0.29174072 0.21221669 0.61900008
0.29173836 0.21676035 0.61892313
0.27819711 0.14449456 0.62
0.27714801 0.14774945 0.62041664
0.27728912 0.15189937 0.62030762
0.27678475 0.15736471 0.62210006
0.27458325 0.16360757 0.62300003
0.27550095 0.16197461 0.62262505
0.27426276 0.16838022 0.62340003
0.27526164 0.16699462 0.62266672
0.27393425 0.17283015 0.62350005
0.27538049 0.17253712 0.62200004
0.27458325 0.17649727 0.62300003
0.27567434 0.17803864 0.62266672
0.27758563 0.18232103 0.6235556
0.27893463 0.18889709 0.62220007
0.27922416 0.19248211 0.62254548
0.28231049 0.19376895 0.61999995
0.27999192 0.19747818 0.62400001
0.28156364 0.19735859 0.62053335
0.27999192 0.20198655 0.62400001
0.28230533 0.2021011 0.62175006
0.28638867 0.20320794 0.62022221
0.28273305 0.20748663 0.62225002
0.28628752 0.20695324 0.62046158
0.28280362 0.21236838 0.62199992
0.28759462 0.21253267 0.62
0.28386325 0.21697858 0.62311113
0.28734404 0.21722032 0.62130779
0.29109719 0.21772817 0.62120003
0.29518846 0.21972348 0.62200004
0.27999189 0.22227432 0.62400001
0.28354797 0.22285318 0.62390006
0.28748235 0.2219415 0.6234616
0.29225743 0.22192466 0.62129998
0.29518846 0.22278753 0.62200004
0.28413185 0.22575808 0.62400001
0.29518846 0.22585158 0.62200004
0.27646989 0.15360706 0.62728578
0.27436963 0.15745561 0.62866664
0.27596399 0.15733398 0.62690908
0.27369693 0.16310997 0.62633336
0.27528149 0.1606949 0.62600005
0.27293366 0.16725898 0.62633336
0.27262989 0.17223722 0.62611115
0.27294582 0.1773048 0.6266923
0.27450544 0.1817712 0.62849998
0.27594161 0.18148297 0.6275
0.2784209 0.19320497 0.62685722
0.27810568 0.19812855 0.62735724
0.28026533 0.19893345 0.62600005
0.27385029 0.2035754 0.62700003
0.2776224 0.20278831 0.62666667
0.2804406 0.20477332 0.625
0.2742742 0.20704575 0.62740004
0.27710697 0.20764074 0.62646669
0.28037047 0.20761453 0.62540001
0.27421179 0.21232711 0.62840003
0.27794248 0.21264274 0.6274091
0.2804406 0.21277827 0.625
0.27428705 0.21565577 0.62800002
0.27759892 0.21675365 0.62727278
0.28177598 0.21803091 0.62545455
0.27919662 0.22263053 0.625
0.28279638 0.22166315 0.62516665
0.28914839 0.22447781 0.625
0.27958333 0.22827291 0.6286667
0.2816571 0.22754307 0.62592864
0.28688878 0.22691785 0.62550002
0.2838439 0.23232965 0.62875003
0.28701499 0.23254739 0.62850004
0.29475474 0.23459037 0.62900001
0.29790539 0.23386741 0.62816668
0.28786913 0.23644951 0.62900001
0.29412878 0.23644948 0.62900001
0.29841521 0.23711796 0.62880003
0.29848832 0.24203746 0.62862504
0.27414727 0.15476316 0.63200003
0.27559736 0.15451829 0.63100004
0.27244082 0.15807912 0.63187504
0.27281761 0.16266111 0.63274997
0.27292779 0.16766046 0.63180006
0.27299654 0.17351115 0.63225001
0.27884975 0.19325776 0.63299996
0.28088051 0.19117959 0.63300002
0.2778576 0.19741505 0.6323334
0.27685326 0.20300908 0.63100004
0.27521098 0.20988901 0.63300002
0.27458006 0.2136299 0.63300002
0.27521098 0.2111363 0.63300002
0.27438387 0.21584228 0.634
0.27899066 0.22984572 0.63300002
0.28025055 0.22984572 0.63300002
0.27892664 0.2324575 0.634
0.281591 0.23300786 0.6325556
0.2794314 0.23520589 0.634
0.2832121 0.23711257 0.63286668
0.28692812 0.23810665 0.63175005
0.29294458 0.23875403 0.63200003
0.29669669 0.23807167 0.63100004
0.28321704 0.24020295 0.634
0.28763363 0.2411399 0.634
0.29333219 0.24231836 0.63300002
0.29729697 0.24243066 0.63153851
0.27102506 0.16425645 0.63500005
0.27284467 0.16768168 0.6371429
0.27276906 0.17238159 0.63677776
0.27527595 0.17284584 0.63900006
0.2792896 0.18891826 0.63800001
0.28157878 0.18895264 0.63600004
0.27760583 0.19227366 0.63773334
0.28075364 0.19050393 0.63700002
0.27713501 0.19763058 0.63742858
0.27748874 0.20223697 0.63787502
0.27909145 0.2055829 0.63900006
0.27484515 0.2140612 0.63800001
0.27441952 0.21649063 0.63775003
0.27945089 0.23682813 0.63500011
0.28176796 0.23807935 0.63500005
0.28882906 0.24289005 0.63580006
0.29167718 0.24411891 0.63525003
0.29187214 0.24696486 0.63775003
0.29645023 0.24853081 0.63842863
0.27103299 0.16959767 0.64100003
0.26973921 0.17166036 0.64400005
0.27157804 0.17151624 0.64142865
0.26805317 0.17605016 0.6415
0.27570677 0.19329374 0.64000005
0.27613756 0.19675192 0.64100003
0.27699253 0.20344882 0.64180005
0.27788907 0.20768897 0.64240009
0.27486634 0.21353637 0.64400005
0.27717775 0.21224791 0.64257157
0.27457744 0.21728405 0.64133346
0.27614814 0.2160743 0.64400005
0.28947055 0.2480375 0.64133334
0.29044527 0.24861974 0.64066672
0.28853875 0.2511825 0.64400005
0.29239333 0.25222075 0.64176476
0.29722688 0.25299352 0.64108336
0.30178386 0.25350893 0.64400005
0.29409313 0.25668135 0.64400005
0.2972976 0.25668135 0.64400005
0.30135661 0.25625837 0.64400005
0.27336749 0.16938505 0.64500004
0.27743456 0.19413301 0.64700001
0.27786335 0.20464787 0.648
0.27399412 0.20911685 0.648
0.2764459 0.20803002 0.64739996
0.273103 0.21186543 0.64700001
0.27586335 0.21058732 0.64533341
0.28899667 0.25409988 0.64550006
0.29069847 0.25326708 0.64500004
0.30435774 0.25348175 0.64620006
0.30640909 0.25341499 0.64700001
0.28842911 0.2575441 0.64645451
0.29251024 0.25744656 0.64560002
0.29814437 0.25860506 0.64500004
0.30366462 0.25784248 0.64500004
0.30719751 0.25662482 0.64614284
0.28742477 0.26072872 0.64775002
0.2932829 0.26192728 0.64755559
0.29745162 0.26239115 0.64712495
0.30227828 0.26238123 0.64642853
0.3069073 0.26296043 0.64785713
0.29898295 0.2673732 0.648
0.3025288 0.26731369 0.64735711
0.30688268 0.26593673 0.648
0.30172366 0.27104414 0.648
0.27354604 0.20912187 0.65000004
0.27354604 0.21040267 0.65000004
0.28433615 0.26286697 0.65200007
0.28779012 0.2636182 0.65128577
0.29165822 0.26355556 0.6500001
0.28407905 0.26713502 0.65280008
0.28811437 0.26679286 0.65236366
0.29260409 0.26703197 0.65066671
0.29672825 0.2682502 0.65012503
0.30794799 0.26878232 0.65025008
0.29267365 0.27121094 0.65262502
0.29723293 0.27205199 0.65128577
0.30159837 0.27382791 0.65071434
0.29797381 0.27549785 0.65250003
0.30163762 0.27614257 0.65200007
0.27925727 0.25254551 0.65633339
0.28154561 0.25287914 0.65528578
0.2782256 0.25779369 0.6577273
0.28221491 0.25743532 0.65693337
0.27830288 0.26269642 0.65790915
0.28208891 0.26303631 0.65616661
0.27920467 0.26777172 0.65800005
0.28169498 0.26763403 0.65576929
0.28738338 0.2688095 0.65500009
0.2834169 0.27203003 0.6568889
0.28829259 0.27265456 0.65684623
0.29180783 0.2738204 0.65566671
0.2677452 0.2791166 0.65800005
0.28378844 0.27619934 0.65800005
0.28790516 0.27703625 0.6578182
0.29274368 0.27767557 0.65700001
0.29708454 0.27791443 0.65627283
0.30144817 0.27918953 0.65642858
0.28869963 0.28041315 0.65800005
0.29197377 0.28041315 0.65800005
0.3057251 0.28041315 0.65800005
0.27332565 0.25472459 0.66200006
0.27596089 0.25472459 0.66200006
0.27350396 0.25761488 0.66216683
0.27618819 0.25730658 0.6604445
0.2732971 0.26238704 0.66122228
0.27583608 0.26245758 0.66012502
0.27751052 0.26764178 0.66227281
0.27922067 0.27267352 0.66214299
0.28139907 0.27294999 0.6603334
0.26819858 0.27870807 0.66142863
0.27109933 0.27862471 0.66300005
0.27901694 0.27601188 0.66300005
0.28221545 0.27743992 0.6622501
0.28636262 0.27851245 0.6606667
0.2838555 0.28167301 0.66300005
0.28730386 0.28160697 0.66233343
0.27864969 0.27389747 0.66633338
0.26891086 0.27781191 0.66575003
0.27273756 0.27833363 0.66700006
0.27796376 0.27825332 0.66635716
0.28118223 0.27946523 0.66500002
0.27488425 0.28180534 0.66900003
0.2776221 0.28252381 0.66758341
0.28182688 0.2825993 0.66589999
0.28647655 0.28339627 0.66500002
0.27688158 0.28510091 0.66900003
0.27411067 0.27380002 0.67200005
0.27744183 0.273128 0.671
0.28088158 0.27344319 0.67166674
0.2733261 0.27698582 0.67116678
0.27698863 0.27691254 0.67119998
0.26699668 0.26943567 0.67600006
0.26839587 0.27283868 0.67783344
0.27299315 0.27458802 0.67820007
0.26891306 0.27697143 0.67880005
0.27209625 0.27757958 0.67718756
0.27103311 0.28009188 0.67600006
