# .PCD v0.7 - Point Cloud Data file format
VERSION 0.7
FIELDS x y z
SIZE 4 4 4
TYPE F F F
COUNT 1 1 1
WIDTH 1444
HEIGHT 1
VIEWPOINT 0 0 0 1 0 0 0
POINTS 1444
DATA ascii
0.092716947 0.2136378 0.8127501
0.098146401 0.21457264 0.81250006
0.12384414 0.21376656 0.81400001
0.12727797 0.21331637 0.81228584
0.13229103 0.21302217 0.81116676
0.13754661 0.21306181 0.8120001
0.14210975 0.21361829 0.81257159
0.1487734 0.21430394 0.81300002
0.15275523 0.2134151 0.81266677
0.15726338 0.21294822 0.81088901
0.16237311 0.21329838 0.81222236
0.16738218 0.21430396 0.81300008
0.17221221 0.2134739 0.81288898
0.1768733 0.21324134 0.81200016
0.18216938 0.21296459 0.81400007
0.18679838 0.2126209 0.81400007
0.19108017 0.21376656 0.81400001
-0.10216619 0.21697448 0.81400007
-0.097643875 0.21758421 0.81200016
-0.093390383 0.21803977 0.81114298
-0.088927887 0.21782351 0.81000006
-0.077596538 0.21841633 0.81000006
-0.07204026 0.21770379 0.81
-0.067203701 0.21730478 0.81
-0.036370676 0.21830232 0.81000006
-0.034758493 0.21830232 0.81000006
-0.027020007 0.21766391 0.81000006
-0.021867016 0.2175644 0.81022221
-0.017033808 0.21762407 0.81044447
-0.012187912 0.21750429 0.81
-0.0073553938 0.2176232 0.81044447
-0.0025185323 0.21750458 0.81120008
0.0023236568 0.21768199 0.81066668
0.0071582994 0.21750428 0.81
0.011994852 0.21590823 0.81000006
0.018443588 0.21590823 0.81000006
0.022963852 0.217398 0.81020004
0.027813494 0.21734424 0.81059998
0.033011366 0.21674392 0.81142861
0.03823233 0.21691282 0.81177789
0.041978817 0.21681961 0.81085718
0.047923531 0.2172763 0.81000006
0.052343387 0.21768244 0.81066674
0.057182599 0.21768244 0.81066674
0.06036038 0.21750429 0.81000006
0.067131557 0.2181427 0.81000006
0.079706587 0.21590823 0.81000006
0.083391584 0.21727629 0.81000006
0.087633364 0.21737412 0.81250012
0.092976585 0.21770658 0.81150007
0.097520813 0.21768199 0.81066674
0.10239414 0.21777308 0.81220001
0.10764571 0.21770114 0.81290925
0.11234188 0.21746251 0.81283349
0.11720424 0.21827827 0.81288898
0.12223405 0.21775031 0.81309104
0.12709585 0.21750709 0.81150019
0.13265069 0.21777211 0.81040013
0.13778302 0.2175644 0.81022227
0.14262135 0.21756352 0.81022221
0.14743714 0.21745203 0.81099999
0.15225488 0.21750428 0.81
0.15709144 0.21750429 0.81
0.16206214 0.21768287 0.81066668
0.1671297 0.21804175 0.8127501
0.1723756 0.21773708 0.81257159
0.17667127 0.21784133 0.81200016
0.18216938 0.21697447 0.81400007
0.18702982 0.21697447 0.81400007
0.19209753 0.21755171 0.8131668
0.19849831 0.21836279 0.8132
0.20323126 0.21793683 0.81400007
0.20647156 0.21777642 0.81400001
-0.10257123 0.22138532 0.81400001
-0.098176524 0.22260703 0.81327283
-0.092925295 0.22259744 0.81111109
-0.089035362 0.22122845 0.81000012
-0.077391818 0.22176047 0.81
-0.071858883 0.22235304 0.81022227
-0.067267232 0.22269782 0.81075001
-0.062971719 0.22388855 0.81000006
-0.058941256 0.22388855 0.81000006
-0.052492522 0.22388856 0.81000012
-0.047281347 0.22362775 0.81050003
-0.042837702 0.22318266 0.81033337
-0.037176773 0.22229248 0.81000006
-0.033376619 0.22274849 0.81000006
-0.027296171 0.22239301 0.81036371
-0.021885892 0.22253731 0.81088889
-0.017024465 0.22229245 0.81
-0.012187912 0.22229248 0.81
-0.0075528827 0.22209296 0.81
-0.0025148066 0.22149447 0.81000006
0.0025904435 0.22176048 0.81000006
0.007158299 0.22309051 0.81000006
0.02448928 0.22189346 0.81000006
0.028116696 0.22069642 0.81000006
0.033490639 0.22335653 0.81000012
0.038359623 0.22300814 0.81066668
0.042626351 0.22309051 0.81000006
0.04766443 0.22249198 0.81
0.052328158 0.22241445 0.81044441
0.05713601 0.22206451 0.81000006
0.066809118 0.22069642 0.81000012
0.083287559 0.22290365 0.81150007
0.088348217 0.22280701 0.81400007
0.092715248 0.22263034 0.81240016
0.097573839 0.22259875 0.81111115
0.10241791 0.22259787 0.81111115
0.10734925 0.22277994 0.81177789
0.11216483 0.22272025 0.81155568
0.11678682 0.22229248 0.81
0.12226388 0.22253665 0.81036371
0.12705438 0.22229858 0.81085712
0.13229105 0.22261265 0.81116676
0.13797331 0.22265843 0.81133348
0.14269955 0.2224759 0.81066668
0.14753835 0.22247545 0.81066668
0.15250638 0.2226593 0.81133336
0.15743667 0.22278081 0.81177789
0.16241755 0.22296377 0.81244457
0.16781953 0.22224456 0.81400007
0.17226234 0.22275709 0.81381828
0.17730893 0.2228556 0.81400007
0.18240085 0.22132803 0.81400007
0.18726087 0.22227553 0.81383342
0.19222006 0.2228003 0.81290925
0.1978839 0.2228981 0.81366676
0.20305125 0.22232093 0.81400007
-0.10110708 0.22604136 0.81200004
-0.098682828 0.22604136 0.81200004
-0.094409309 0.22548461 0.81000006
-0.071897857 0.2256702 0.81066674
-0.067002177 0.22548461 0.81000012
-0.062971719 0.22548461 0.81000006
-0.051686428 0.22548461 0.81000006
-0.04739802 0.22658154 0.8125
-0.042961262 0.22782917 0.81266677
-0.037535068 0.22738937 0.81028575
-0.033146311 0.22708069 0.81
-0.027289813 0.22698657 0.81018192
-0.022505892 0.22644225 0.81000006
-0.017024465 0.22548461 0.81000006
-0.012187912 0.22548461 0.81000012
-0.0075528827 0.2272802 0.81
-0.0035895961 0.22814474 0.81000012
0.0023217462 0.22708067 0.81000006
0.0087704835 0.2278787 0.81000006
0.024892326 0.22708067 0.81000012
0.02972888 0.22708067 0.81000012
0.032962289 0.22714342 0.81022227
0.037832595 0.22733031 0.81088889
0.042450644 0.22742134 0.81050009
0.047515437 0.22733119 0.81088883
0.052002847 0.22623439 0.81040013
0.055523824 0.22548461 0.81000006
0.079706587 0.22867674 0.81000006
0.083771847 0.22717348 0.81033337
0.087863386 0.22732899 0.81088907
0.092834659 0.22695076 0.81025004
0.097547986 0.22732857 0.81088895
0.10266957 0.2279533 0.81311119
0.10746726 0.22782914 0.81266677
0.11225698 0.22770365 0.81222236
0.11681887 0.22714254 0.81022221
0.12242948 0.22708069 0.81000012
0.12737145 0.22726825 0.81066674
0.13229138 0.22740743 0.81116676
0.13797243 0.22745273 0.81133342
0.1426003 0.22723013 0.81125009
0.14765966 0.22665511 0.81133336
0.15286285 0.22718538 0.81200004
0.1575664 0.22776641 0.81244457
0.16243963 0.22766428 0.81371433
0.17676888 0.22713278 0.81400001
0.18702981 0.22659813 0.81400001
0.19177237 0.22685993 0.81349999
0.19999097 0.22740009 0.81400001
0.20346271 0.22866037 0.81400007
0.20647156 0.22900406 0.81400001
-0.037176769 0.2302728 0.81000006
-0.033173591 0.23046231 0.81066674
-0.0073567471 0.2312617 0.81066674
-0.0029204004 0.23081496 0.81050009
0.033008821 0.23065186 0.81133336
0.03785333 0.23065186 0.81133336
0.04232756 0.23124139 0.81200004
0.047580101 0.23084138 0.81200004
0.079706587 0.23107083 0.81000006
0.087445073 0.23123042 0.81000006
0.099052802 0.2302728 0.81000006
0.10293475 0.23124041 0.81200004
0.10733546 0.23154531 0.81166667
0.11227211 0.23173617 0.81233346
0.11678683 0.23107082 0.81000006
0.12162338 0.23067182 0.81000006
0.12699732 0.23080483 0.81000012
0.13242877 0.23084138 0.81200004
0.13774523 0.23027281 0.81000012
0.14096959 0.2302728 0.81000006
0.20351048 0.23166882 0.81349999
0.20647156 0.23221195 0.81400001
-0.1015099 0.20406109 0.81850004
-0.097318105 0.2046172 0.8175
-0.090346843 0.20489524 0.81700003
-0.087555438 0.2046172 0.8175
-0.081073992 0.20303719 0.81860012
-0.077345692 0.20244184 0.81880009
-0.0726116 0.2032503 0.81871444
-0.062856354 0.20378304 0.81900012
-0.057799589 0.20400606 0.81666672
-0.052925881 0.20400606 0.81666672
-0.04780132 0.20360091 0.81642872
-0.043083731 0.20343013 0.81500006
-0.037464797 0.20365547 0.81633341
-0.031629387 0.20363973 0.81842864
-0.027189985 0.20395806 0.81785721
-0.022015285 0.20375726 0.81566679
-0.017129553 0.20359074 0.81500006
-0.012263147 0.20359072 0.81500006
-0.0076161642 0.20308317 0.81700003
-0.0028113273 0.20326523 0.81800002
0.00071744586 0.20378304 0.81900007
0.034949493 0.20378304 0.81900007
0.16861747 0.20378304 0.81900007
0.17187767 0.20337959 0.81900007
-0.11012918 0.20701063 0.81900012
-0.10696936 0.20750411 0.81863648
-0.1032106 0.20702487 0.81800008
-0.098236352 0.20599958 0.81500006
-0.093672805 0.20559776 0.81766671
-0.082502022 0.20575848 0.81660002
-0.077663131 0.20585959 0.81700003
-0.073119849 0.20576625 0.81833339
-0.067420624 0.20604233 0.81900007
-0.06237407 0.20554751 0.81800008
-0.057682954 0.20599958 0.81500006
-0.052816547 0.20599958 0.81500006
-0.047950137 0.20599958 0.81500006
-0.036683001 0.20677143 0.81700003
-0.031960271 0.2075787 0.81680006
-0.026667736 0.2074361 0.81614286
-0.022244258 0.20729168 0.81557149
-0.016318487 0.20599958 0.81500006
-0.012263147 0.20599958 0.81500006
-0.0065927557 0.20678636 0.8160001
-0.0025365397 0.20752634 0.81700015
0.0019795666 0.20793302 0.81700009
0.00722377 0.20900349 0.81733346
0.011700382 0.20904627 0.8175
0.017811695 0.2091746 0.81800008
0.022118656 0.20886548 0.81814295
0.026799006 0.2070106 0.81900012
0.032629382 0.20741817 0.81806684
0.037981763 0.20794347 0.81760007
0.042870399 0.20829433 0.8185001
0.047990274 0.20862442 0.81900007
0.058719903 0.20819898 0.81860012
0.062493719 0.2072653 0.8168335
0.066574089 0.208113 0.81700009
0.078147069 0.20701063 0.81900012
0.082019731 0.20745815 0.81845468
0.085482508 0.20701063 0.81900012
0.11971456 0.20862442 0.81900007
0.12310295 0.20829435 0.81850004
0.12751853 0.20771231 0.81772727
0.13259324 0.20917463 0.81800008
0.13584945 0.20917462 0.81800008
0.1413345 0.20899121 0.81833339
0.14824127 0.20862442 0.81900007
0.15231651 0.20862442 0.81900007
0.15744106 0.20827396 0.81833345
0.16250937 0.20797648 0.81792319
0.16750374 0.20775865 0.81790918
0.17191845 0.20755717 0.81833345
0.17736518 0.20917462 0.81800008
0.18224715 0.20865767 0.81642872
0.18725614 0.20804931 0.81675005
0.19097134 0.20972481 0.81700003
0.20447962 0.20862442 0.81900007
0.20610972 0.20862442 0.81900007
-0.11094423 0.21104512 0.81900007
-0.10796561 0.21301496 0.81650001
-0.10481056 0.2125957 0.81566668
-0.00090819417 0.21081734 0.81500006
0.007202486 0.21081734 0.81500006
0.013172718 0.21062431 0.81633341
0.016548557 0.21067256 0.81600004
0.021820871 0.2109898 0.81566668
0.027318206 0.21143149 0.81681824
0.032396521 0.21142857 0.81633341
0.038366955 0.21156318 0.81540006
0.043248869 0.2115148 0.81666672
0.047899127 0.211447 0.81744456
0.052794475 0.21150449 0.81766677
0.057087079 0.2110644 0.81700009
0.060732976 0.21081734 0.81500006
0.069181532 0.21023822 0.81900007
0.072264828 0.21052778 0.81700009
0.077143177 0.21052778 0.81700003
0.082328662 0.21067256 0.81600004
0.086547524 0.21106055 0.81750005
0.092590295 0.21173616 0.81700003
0.097389445 0.21303712 0.81633341
0.10293604 0.21411896 0.81780005
0.10749809 0.21348386 0.81642872
0.11305273 0.21256728 0.81680006
0.11794393 0.21235627 0.81700009
0.12217963 0.21217449 0.81611115
0.12691209 0.21134815 0.81550002
0.13210696 0.21081734 0.81500006
0.13820758 0.21065712 0.81750005
0.14273056 0.2110644 0.81700003
0.14711139 0.2118725 0.81650013
0.15213053 0.21078646 0.81800008
0.15734504 0.21094668 0.81550002
0.16332737 0.21133468 0.81700009
0.16799983 0.21187896 0.8160001
0.17308407 0.21133468 0.81700009
0.17692955 0.21067256 0.81600004
0.18239318 0.21081734 0.81500006
0.18807065 0.21081734 0.81500006
0.19285405 0.21175328 0.81655562
0.19743586 0.21209322 0.81683344
0.20223033 0.21200632 0.81650007
0.20703928 0.21230924 0.81681824
0.21209948 0.21347284 0.81800002
0.2158903 0.21346582 0.81900007
-0.1105367 0.21871066 0.81900007
-0.10729058 0.21750754 0.81599998
-0.10472491 0.21724102 0.81500006
0.10371958 0.21563509 0.81500006
0.10615279 0.21563509 0.81500006
0.11750774 0.21563511 0.81500006
0.12075201 0.21563509 0.81500006
0.19699241 0.21678221 0.81500012
0.20226435 0.21603656 0.81500006
0.20768085 0.2169185 0.81620008
0.21221471 0.21755837 0.8174001
0.21709959 0.21806912 0.81877786
-0.11067255 0.22261068 0.81900012
-0.10759638 0.22296566 0.81833339
-0.1034786 0.2224897 0.81540006
0.18158211 0.22366467 0.81500006
0.20348094 0.22045283 0.81500006
0.20779192 0.22233123 0.8160001
0.21222626 0.22272433 0.8174445
0.21734467 0.22296697 0.81833345
0.22159564 0.22476241 0.81900007
0.16783971 0.22693835 0.81522226
0.17266038 0.22767946 0.81500006
0.17833784 0.22727798 0.81500006
0.18244246 0.2269388 0.81522226
0.18671887 0.2268765 0.81500006
0.19212601 0.22848241 0.81500006
0.1969924 0.22767946 0.81500006
0.20294023 0.22634119 0.81500006
0.2077252 0.22672606 0.8152858
0.21231413 0.22723202 0.81699997
0.2160822 0.22654429 0.81766671
0.16292755 0.23008834 0.81500006
0.19374813 0.23008834 0.81500006
0.19699243 0.23169425 0.81500006
0.20120995 0.23233663 0.81500006
0.20915842 0.23089129 0.81500006
0.21211086 0.23145789 0.81700003
-0.086096168 0.19991326 0.82300001
-0.083538443 0.19967034 0.82200003
0.18537003 0.19942744 0.82100004
-0.11221546 0.20461242 0.82233334
-0.10760471 0.20399964 0.8215
-0.10247676 0.20315664 0.82300007
-0.097140931 0.20360625 0.8222
-0.092423253 0.20428066 0.82100004
-0.08742436 0.20270656 0.82200003
-0.083599232 0.20233937 0.82100004
-0.067912087 0.20428066 0.82100004
-0.041766837 0.20266291 0.82100004
-0.036537785 0.20201583 0.82100004
-0.033596445 0.20185405 0.82100004
0.0031703152 0.20428066 0.82100004
0.0072731855 0.2047783 0.82300007
0.012187362 0.2047783 0.82300007
0.017059978 0.20428066 0.82100004
0.021962214 0.20428066 0.82100004
0.026864447 0.20428066 0.82100004
0.031766683 0.20428066 0.82100004
0.038302995 0.20428066 0.82100004
0.04238819 0.20428066 0.82100004
0.04810746 0.20428066 0.82100004
0.0530097 0.20428066 0.82100004
0.056277853 0.20428066 0.82100004
0.069350481 0.20428066 0.82100004
0.074252717 0.20428066 0.82100004
0.077520877 0.20428066 0.82100004
0.082423106 0.20428066 0.82100004
0.085691266 0.20428066 0.82100004
0.10555671 0.2047783 0.82300001
0.11866119 0.2047783 0.82300001
0.1219373 0.2047783 0.82300007
0.12603244 0.2047783 0.82300001
0.13176565 0.2047783 0.82300007
0.13749886 0.2047783 0.82300001
0.1497843 0.2047783 0.82300001
0.15469848 0.2047783 0.82300001
0.15819116 0.20412406 0.82200003
0.16232365 0.20383106 0.82180005
0.16757108 0.20287339 0.82185715
0.17066333 0.20185405 0.82100004
0.17734486 0.20444654 0.82166672
0.18213597 0.20437288 0.82300001
0.1868609 0.2032461 0.82242858
0.19221668 0.20461242 0.82233334
0.19745412 0.20354943 0.82271427
0.20097363 0.20356205 0.82300001
-0.1158503 0.20817333 0.82200003
-0.11284924 0.20751613 0.82100004
0.0034426616 0.20643765 0.82100004
0.0072679571 0.20704232 0.82233334
0.012170439 0.20726891 0.82185721
0.016826538 0.20705393 0.82100004
0.021635396 0.2065455 0.82100004
0.039120033 0.2058984 0.82100004
0.043205231 0.2058984 0.82100004
0.04810746 0.20731393 0.82100004
0.0530097 0.20751615 0.82100004
0.057258297 0.20686904 0.82100004
0.068941966 0.2071117 0.82100004
0.072618641 0.20751615 0.82100004
0.075886801 0.20751613 0.82100004
0.088357106 0.20802169 0.82300007
0.092218243 0.20848502 0.82300007
0.097366422 0.2088325 0.82300007
0.10187108 0.20923793 0.82300001
0.10678527 0.20923793 0.82300001
0.11276418 0.20867036 0.82300007
0.11712024 0.20803383 0.82225001
0.12196779 0.20622197 0.82100004
0.12981138 0.2058984 0.82100004
0.1331329 0.20679086 0.82133341
0.13835508 0.2075657 0.82200003
0.14355356 0.20829973 0.82249999
0.14790556 0.20741437 0.82166672
0.15284787 0.20726892 0.82185721
0.15650132 0.20643765 0.82100004
0.16085885 0.2058984 0.82100004
0.16902925 0.2058984 0.82100004
0.17393148 0.2058984 0.82100004
0.17734352 0.20687447 0.82166672
0.18232433 0.20695871 0.82200003
0.18711899 0.20683266 0.82150006
0.19184744 0.20829971 0.82249999
0.19707449 0.20779568 0.82211113
0.20218503 0.20766664 0.82160008
0.20739906 0.2078943 0.82250005
0.2109385 0.20910279 0.82300007
-0.1165902 0.21282218 0.82185721
-0.11325775 0.2127738 0.82100004
0.088250734 0.21100833 0.82200003
0.092378691 0.2110939 0.82233334
0.097552069 0.21160407 0.82180005
0.1022806 0.21207587 0.82300007
0.10710728 0.21190342 0.82233334
0.11149511 0.2112844 0.82150006
0.11673874 0.21075162 0.82100004
0.2098812 0.21075162 0.82100004
0.21327917 0.21168885 0.82150006
0.2180516 0.2139871 0.82100004
0.2218589 0.21450838 0.82300007
0.225135 0.21450838 0.82300001
-0.11621234 0.21739829 0.82166672
-0.11284923 0.21722257 0.82100004
0.21914099 0.21614408 0.82100004
0.22240768 0.21748585 0.82200003
0.22554451 0.21815717 0.82300001
-0.1165259 0.22086248 0.82100004
-0.11312158 0.22153656 0.82100004
0.22295386 0.22207578 0.82100004
0.22677307 0.22261679 0.82300007
0.2245879 0.22531126 0.82100004
-0.092726067 0.19362238 0.82660007
-0.11312386 0.19973722 0.82900012
-0.10817385 0.19973722 0.82900012
-0.10487385 0.19973721 0.82900006
-0.097448848 0.19973721 0.82900006
-0.09329927 0.19805017 0.82877785
-0.089341849 0.19791269 0.82650006
0.18216807 0.19877346 0.82500005
-0.12137386 0.20463771 0.82900006
-0.11797891 0.20283964 0.82833344
-0.1128215 0.20245872 0.82677788
-0.10757764 0.2020649 0.82600009
-0.10284898 0.20145479 0.82600009
-0.098036095 0.20169836 0.82700008
-0.092973627 0.20224106 0.82588899
-0.088768452 0.20039907 0.82500005
-0.045254402 0.20365031 0.82500005
0.15380433 0.20414402 0.82700002
0.15507442 0.20365031 0.82500005
0.17970501 0.20365031 0.82500005
0.1825836 0.20179713 0.82540005
0.20269357 0.20365031 0.82500005
0.20697631 0.20463771 0.82900006
-0.12632386 0.20708796 0.82900006
-0.12255245 0.20813806 0.82900012
-0.11813778 0.2069554 0.82614297
0.093497932 0.20690157 0.82500005
0.097931437 0.20625131 0.82499999
0.10273441 0.20669834 0.82499993
0.10792442 0.20690158 0.82499999
0.11191223 0.20666935 0.82499999
0.11621282 0.20581782 0.82500005
0.14275911 0.20690157 0.82500005
0.14660622 0.20602572 0.82540005
0.15261135 0.20527594 0.82500005
0.19366235 0.20771438 0.82500005
0.2043356 0.20527594 0.82500005
0.20774551 0.20621316 0.82550007
0.21242811 0.20723976 0.82728571
0.21687631 0.20872146 0.82900006
0.22182631 0.20912984 0.82900006
0.22842632 0.20953822 0.82900006
0.23139632 0.20888482 0.82900012
-0.12714887 0.21280521 0.82900012
-0.12276048 0.21234845 0.82722235
-0.11933874 0.21211939 0.8263334
0.21418783 0.2101528 0.82500005
0.21800718 0.21189463 0.82625008
0.22259665 0.21236521 0.82650012
0.22737952 0.21197329 0.8264001
0.23199098 0.21229051 0.82700008
-0.12699549 0.21662836 0.82800007
-0.12272705 0.21718052 0.82700008
-0.11914619 0.21828091 0.82500005
0.22826247 0.21711974 0.82499999
0.23093665 0.21698041 0.82499999
-0.12190405 0.22043964 0.82700002
0.22896619 0.22234496 0.82500005
0.23060824 0.22153215 0.82500005
-0.11689331 0.19890025 0.83233345
-0.11192076 0.19890025 0.83233345
-0.10843483 0.19858164 0.83100003
-0.10206395 0.19905958 0.83300006
-0.097762316 0.19710088 0.83166671
-0.1261044 0.20316303 0.83300006
-0.12256788 0.20197748 0.83149999
-0.11753173 0.20021908 0.83100003
-0.10190059 0.20037971 0.83166671
0.20830265 0.20349397 0.83100003
0.21211991 0.20398372 0.83300006
-0.12793712 0.20600769 0.83233345
-0.12456115 0.20635951 0.83100003
0.20912965 0.20513141 0.83100003
0.21260938 0.20529598 0.83166671
0.21750341 0.20686761 0.83140004
0.22236149 0.20742384 0.83100003
0.22741398 0.20767054 0.83133334
0.23269887 0.20717821 0.83100003
0.23616037 0.20808718 0.83300006
-0.12662864 0.21004374 0.83100003
0.22649646 0.21004374 0.83100003
0.23587686 0.21111523 0.83200002
-0.12729105 0.19828913 0.83900011
-0.12244842 0.19820642 0.83633333
-0.11762486 0.19691728 0.83585721
-0.11254828 0.19754022 0.83700007
-0.10755298 0.19836393 0.83700013
-0.10251521 0.19746254 0.8366667
-0.12711355 0.20087336 0.83599997
0.2124753 0.20264995 0.83766669
0.21739349 0.20364414 0.83642858
0.22230107 0.20331134 0.83700001
0.22734492 0.20288801 0.83772731
0.23229663 0.20331134 0.83700007
0.2362731 0.20314942 0.83633339
0.218446 0.20611881 0.83500004
0.2217699 0.20611881 0.83500004
0.22675574 0.20611881 0.83500004
0.23174155 0.20611881 0.83500004
0.23714286 0.2073528 0.83500004
-0.12510148 0.19480489 0.84300005
-0.12090681 0.19480489 0.84300005
-0.11671215 0.19438963 0.84300005
-0.11251748 0.19480489 0.84300005
-0.10161135 0.19397435 0.84300005
-0.12827353 0.19751202 0.84180003
-0.12313079 0.19599986 0.84100002
-0.11661851 0.19631061 0.84233344
-0.11167854 0.196466 0.84300011
-0.1071199 0.196863 0.84233344
-0.10320886 0.19631061 0.84233344
0.21886103 0.19978815 0.84300005
0.2221289 0.19887862 0.84266663
0.22680043 0.19856393 0.84133339
0.23228395 0.19895761 0.84300005
0.23619811 0.1987206 0.84200001
0.21382743 0.20144925 0.84300005
0.21720801 0.20182534 0.84180003
0.22168957 0.20097131 0.84100002
0.22503734 0.20097131 0.84100002
0.23173289 0.20097131 0.84100002
0.23675454 0.20097131 0.84100002
0.24122673 0.20452851 0.84200001
0.2417762 0.20759991 0.84100002
-0.10390184 0.18927655 0.84800005
-0.12723051 0.19383115 0.84600008
-0.12210777 0.19288307 0.84549999
-0.11698904 0.19260299 0.84500009
-0.11214221 0.19311023 0.8465001
-0.10702448 0.19299667 0.84600008
-0.10353427 0.191937 0.84500003
-0.12792104 0.19526705 0.84500003
-0.12371642 0.19526705 0.84500003
-0.11026165 0.19526705 0.84500003
-0.10689795 0.19526705 0.84500003
-0.10353426 0.19526705 0.84500003
0.21938027 0.19859712 0.84500003
0.22269087 0.19763125 0.84800005
0.22734846 0.19728166 0.84650004
0.23281777 0.19763125 0.84800005
0.2370373 0.19763127 0.84800005
0.21762741 0.20097314 0.84800005
-0.125884 0.18893301 0.85400003
-0.12248447 0.18893301 0.85400003
-0.11965396 0.18932799 0.852
-0.10596322 0.18910673 0.85100007
-0.13117665 0.19279721 0.85250008
-0.12788376 0.19200025 0.85175008
-0.12294924 0.19085865 0.85133338
-0.11750747 0.19099651 0.85120004
-0.11282536 0.19093308 0.85166669
-0.10817406 0.19126594 0.8524
0.21814069 0.19977224 0.85000002
0.22306649 0.19759963 0.85266674
0.22713087 0.19604328 0.852
0.23221955 0.19604394 0.852
0.2381541 0.19604394 0.85200012
-0.1263272 0.18790802 0.85700005
-0.12210937 0.18798111 0.85733336
-0.11694469 0.18875138 0.85700005
-0.11187033 0.18882512 0.85733336
-0.10797331 0.18869083 0.85800004
0.22446308 0.19404453 0.85800004
0.22770146 0.19304781 0.8573333
0.23258455 0.1932402 0.85724998
0.23820908 0.19355303 0.85742861
0.24097726 0.19359222 0.85600007
0.22236592 0.19750187 0.85650003
0.23586604 0.19612229 0.85600007
-0.11762698 0.18390876 0.86200005
-0.11419562 0.18390876 0.86200005
-0.12741897 0.18719718 0.86150002
-0.1226316 0.18623929 0.86100006
-0.1174457 0.18616748 0.86066675
-0.11234945 0.18623927 0.861
-0.10762542 0.18619977 0.86160004
0.22808306 0.18730582 0.86200005
0.23923498 0.18900435 0.86200005
0.22353323 0.19302648 0.86100006
0.22687241 0.1904079 0.86066675
0.23219387 0.19055538 0.86133337
0.23724377 0.19132893 0.86100006
0.22199082 0.1966151 0.86000001
0.22036248 0.20089404 0.86200005
-0.13241911 0.18368989 0.86900008
-0.12708384 0.1837626 0.86800003
-0.12233441 0.18326449 0.86700004
-0.11736049 0.18308069 0.86728585
-0.11260149 0.18320449 0.86671436
-0.1078942 0.18337451 0.86650008
0.22854321 0.18497552 0.86700004
0.23113167 0.18497552 0.86700004
0.23811266 0.18411843 0.86833334
-0.13169217 0.18632714 0.86800003
-0.12836628 0.18625325 0.86500007
0.22388157 0.18882686 0.86900002
0.22681759 0.18753678 0.86700004
0.2312409 0.18881556 0.86633343
0.23752287 0.18807086 0.86750007
0.24117772 0.18882686 0.86900002
0.2232365 0.19255163 0.86650002
0.22509195 0.19010065 0.86700004
0.23372011 0.19010065 0.86700004
0.23544575 0.19010065 0.86700004
0.21991505 0.19864255 0.86700004
0.22138505 0.19755825 0.86600006
0.21960947 0.20260392 0.86750007
0.21869273 0.20595007 0.86900002
-0.12086559 0.1793748 0.87300003
-0.11695605 0.17894475 0.87300003
-0.1130465 0.1793748 0.87300003
-0.13272387 0.1823964 0.87100005
-0.1276685 0.18174571 0.8720001
-0.12251087 0.18095672 0.87233341
-0.11712151 0.18068014 0.87100005
-0.11192073 0.18068014 0.87100005
-0.10795867 0.18139052 0.87166679
0.22317453 0.18367532 0.87300003
0.22821152 0.18439448 0.87233341
0.23266535 0.18368018 0.87166679
0.23680258 0.18346491 0.87200004
0.24114154 0.18346393 0.87200004
0.2231226 0.18768874 0.87166679
0.22613044 0.18754518 0.87100005
0.23422056 0.18754518 0.87100005
0.23593479 0.1877605 0.87200004
0.24114154 0.18690041 0.87200004
0.222418 0.1924392 0.87140006
0.22092965 0.19698462 0.87100005
0.21913914 0.20205097 0.87250006
0.21796179 0.20517784 0.87300003
0.22143695 0.20689805 0.87300003
-0.11456773 0.17348194 0.87800002
-0.13029549 0.17867211 0.87800002
-0.12745458 0.17922893 0.87650013
-0.12270308 0.17864946 0.87620014
-0.11808836 0.17714804 0.87560004
-0.11240046 0.17789094 0.87700003
0.22406927 0.17922893 0.87650001
-0.13159184 0.1815099 0.87500006
-0.12985028 0.1815099 0.87500006
0.22232375 0.18268314 0.87650001
0.22746208 0.18222634 0.87680006
0.23267314 0.18168111 0.87687504
0.23730831 0.18142802 0.87600011
0.24064094 0.18095604 0.87650001
0.22135232 0.18741119 0.87680006
0.21921015 0.19251256 0.87800002
0.22082683 0.19201921 0.87575001
0.21839876 0.19779599 0.87650001
0.22020271 0.19702719 0.87500012
0.21786201 0.20227075 0.87680006
0.21846114 0.20737205 0.87500006
0.2202027 0.20909619 0.87500006
-0.1267872 0.17466746 0.88400006
-0.12199603 0.17267959 0.88275003
-0.11709292 0.17275684 0.88166666
-0.11201657 0.17383683 0.88200009
-0.10725709 0.17327397 0.884
-0.13088909 0.17774816 0.88200003
-0.1272825 0.17674419 0.88133335
-0.12227261 0.17604461 0.88000005
-0.11745597 0.17561111 0.88000005
-0.11182608 0.17725219 0.88200015
-0.10831277 0.17815122 0.88400006
0.22384465 0.17871888 0.88250005
0.22747724 0.17801277 0.88160002
0.23223364 0.17841363 0.88100004
0.2376097 0.17812732 0.8814286
0.24105296 0.17801556 0.88333338
-0.10957418 0.18081309 0.88000005
0.21894869 0.18337685 0.88400006
0.22091022 0.1826136 0.88200009
0.24358128 0.18163498 0.88400006
0.21913321 0.18761715 0.8817144
0.21803197 0.19237582 0.88266671
0.21801347 0.196429 0.88200003
0.21845335 0.20816404 0.88200009
0.21920228 0.21267015 0.88266677
0.22020882 0.21337587 0.88200003
0.21894869 0.21647252 0.88400006
-0.13723615 0.16689675 0.88900006
-0.12396549 0.16864848 0.88900006
-0.11865722 0.16864848 0.88900006
-0.10715598 0.16864848 0.88900012
-0.13723615 0.1704002 0.88900006
-0.12727043 0.17207448 0.88860005
-0.12331347 0.17098658 0.88750005
-0.11755975 0.17079265 0.88740009
-0.11206747 0.17192952 0.8878572
-0.1066615 0.17124596 0.88733339
-0.1323185 0.17713974 0.8876667
-0.12986565 0.17526023 0.88700002
0.22347328 0.17808245 0.88800001
0.22757831 0.17599356 0.88850009
0.23173828 0.17666987 0.88750005
0.23731415 0.17619644 0.88819999
0.24087703 0.17526023 0.88700002
0.21969174 0.18225138 0.88700002
0.22195652 0.18091059 0.88900006
0.21841769 0.18791752 0.88900012
0.21792629 0.19273812 0.88700002
0.21792629 0.19885539 0.88700002
0.21841767 0.20280722 0.88900006
0.21841769 0.20718655 0.88900012
0.21969174 0.2119638 0.88700002
0.21841767 0.21594518 0.88900006
-0.13622864 0.16783543 0.89400005
-0.1322885 0.16817614 0.89314288
-0.12751554 0.16831243 0.89280003
-0.1218913 0.16769317 0.89325005
-0.11816995 0.16804519 0.89200008
-0.11273415 0.16817614 0.89314288
-0.10846753 0.16755383 0.89250004
-0.13622864 0.1713586 0.89400005
-0.13222638 0.17260951 0.89250004
-0.12867787 0.17253923 0.89100003
-0.11271725 0.17078356 0.89100003
0.22427249 0.17347251 0.89400005
0.22765331 0.17312019 0.89400005
0.23076719 0.17356057 0.89400005
0.23832953 0.17488176 0.89400005
0.2409986 0.17488176 0.89400005
-0.1339981 0.17780624 0.89100003
0.22211242 0.1774196 0.89200008
0.23398298 0.17605057 0.89100003
0.21890904 0.18482894 0.89100003
0.22068244 0.1813176 0.89100003
0.21890905 0.21291968 0.89100003
-0.13207501 0.16467986 0.89600003
-0.12939997 0.16467986 0.89600003
-0.12240303 0.16397892 0.89700001
-0.11707308 0.16383873 0.89720005
-0.11283968 0.16421257 0.89666671
-0.10978308 0.16467986 0.89600003
-0.13653339 0.16997643 0.89600003
-0.13296668 0.16644537 0.89600003
-0.1273731 0.16588621 0.89680004
-0.12315823 0.16644537 0.89600003
-0.11696869 0.16651888 0.89639997
-0.11334979 0.16644537 0.89600003
-0.10867453 0.1659794 0.89666671
0.22395387 0.16928139 0.89700007
0.22723824 0.16857141 0.89675003
0.23109525 0.16928139 0.89700007
-0.13653339 0.17350747 0.89600003
0.22249053 0.17183679 0.89649999
0.23377359 0.17193231 0.89700001
0.23695788 0.17304675 0.89666671
0.24118324 0.17389475 0.89800006
-0.13683815 0.17920314 0.89800006
0.21884154 0.17920314 0.89800006
0.22082901 0.17679372 0.89700007
0.23440433 0.17527299 0.89600003
0.23618768 0.17527299 0.89600003
0.22046509 0.18260774 0.89733338
0.21884154 0.18893519 0.89800006
0.21851659 0.19307046 0.89666671
0.21783416 0.19804788 0.89680004
0.21808331 0.20205477 0.89733338
0.218151 0.20728447 0.89700007
0.21786664 0.21274464 0.89766681
0.21794787 0.21724662 0.89800006
-0.13012208 0.16382344 0.90100002
-0.12732181 0.16347279 0.90233344
-0.12263598 0.1617831 0.90200007
-0.11814874 0.1617831 0.90200007
-0.11218902 0.16323166 0.90100002
-0.10884347 0.1641871 0.90300006
0.22371526 0.16787867 0.9018001
0.22764251 0.16559882 0.90100002
0.23238342 0.16726276 0.90200007
0.235974 0.16844766 0.90200007
0.22071299 0.172892 0.90200013
0.23905402 0.17176968 0.90233344
0.24204819 0.17236279 0.90233344
0.219136 0.17756639 0.90166676
0.21869002 0.18209271 0.9018001
0.21791632 0.18702243 0.90157145
0.21725379 0.19240014 0.9018001
0.21679392 0.19744064 0.90250003
0.21712241 0.2031059 0.90200007
0.21674362 0.20776813 0.90166664
0.21466818 0.21222864 0.90300006
0.21598603 0.21264628 0.90100002
0.21466818 0.21756659 0.90300006
0.21598604 0.21708471 0.90100002
0.21466817 0.22112522 0.90300006
0.21598603 0.22063546 0.90100002
-0.12751853 0.15972871 0.90800011
-0.12209682 0.15972871 0.90800011
-0.11848234 0.15972871 0.90800005
-0.13091639 0.16214268 0.90650004
-0.12765436 0.16156346 0.90575004
-0.12349468 0.16098423 0.90500003
-0.11719026 0.16098423 0.90500003
-0.11296724 0.16227758 0.90725005
0.22765341 0.16372162 0.90700006
0.23315631 0.16455074 0.90500003
0.24306327 0.16455074 0.90500003
0.22398938 0.16777998 0.90800005
0.22670025 0.16509622 0.90800005
0.23246476 0.16550882 0.90700006
0.23798016 0.16664656 0.90671444
0.24229686 0.1678911 0.90700012
0.21947129 0.17314747 0.90800005
0.22127852 0.17046373 0.90800005
0.24436827 0.17107375 0.90650004
0.24617252 0.17107375 0.90650004
0.2182066 0.17732549 0.90650004
0.2169449 0.18238333 0.90500009
0.21621951 0.18695717 0.90700006
0.21621951 0.1917204 0.90700006
0.21550021 0.19608073 0.90650004
0.21585681 0.20445792 0.90800005
0.21538135 0.20757607 0.90600008
0.21404958 0.21787667 0.90800005
0.21404958 0.22234963 0.90800011
-0.12779942 0.15828744 0.91000003
-0.12263568 0.15773579 0.91200006
-0.11913478 0.15790974 0.91300005
-0.11640899 0.16060828 0.91300005
-0.11186602 0.16195755 0.91300005
0.22249702 0.16420631 0.91300005
0.22743416 0.16230057 0.91240007
0.23288791 0.1629481 0.91100001
0.2365133 0.16264728 0.91100001
0.24157752 0.16420631 0.91300005
0.21940868 0.16932473 0.91150004
0.22218284 0.16705321 0.91171432
0.22538836 0.16545987 0.91000003
0.21877609 0.17232484 0.91075003
0.21678507 0.17756335 0.91000003
0.21633227 0.18159786 0.91000003
0.21633227 0.19414963 0.91000003
0.21633227 0.19952895 0.91000003
0.21633227 0.20221862 0.91000003
0.21452105 0.21387382 0.91000003
0.21522826 0.21277986 0.91300005
0.21378109 0.21793994 0.91200006
0.21257161 0.22272944 0.91200006
0.21250248 0.22537301 0.91300005
-0.13046521 0.15662269 0.91600001
-0.12677142 0.15686652 0.9156667
-0.12239446 0.15589121 0.91700006
-0.1171644 0.15724234 0.9158572
-0.11219143 0.15837097 0.91566676
-0.10779324 0.15860157 0.91700006
-0.10482638 0.15825567 0.91500002
0.22803469 0.15950502 0.91700006
0.23624788 0.15950502 0.91700006
-0.11028989 0.16186158 0.91500002
-0.10763717 0.16288231 0.9156667
-0.10482638 0.16096011 0.91500002
0.21958178 0.16384242 0.91600001
0.22292392 0.16263914 0.91600007
0.22596186 0.16113602 0.91600001
0.23209026 0.16096011 0.91500008
0.23846436 0.16186158 0.91500002
0.242156 0.16239926 0.91633338
0.2188935 0.1676935 0.9156667
0.21767938 0.17190173 0.91566676
0.2166211 0.17744628 0.91633338
0.21799636 0.18480165 0.91700006
0.21799636 0.18660855 0.91700006
0.21617121 0.20829138 0.91700006
0.21434605 0.2137121 0.91700006
0.21617121 0.21100175 0.91700006
0.21411231 0.21618545 0.91600001
0.21160483 0.22182044 0.9156667
-0.1320949 0.15475643 0.921
-0.12737268 0.1545884 0.92000002
-0.12201178 0.15384805 0.921
-0.11708066 0.15409485 0.92066669
-0.11260173 0.15419775 0.92200005
-0.10765274 0.15354526 0.921
-0.13286605 0.15821403 0.92000002
-0.12828824 0.15640122 0.92000002
-0.1127237 0.15640122 0.92000002
-0.10723033 0.15640122 0.92000002
-0.10356808 0.15821403 0.92000002
0.22377276 0.15855797 0.92200005
0.22802895 0.15832868 0.92066669
0.23294827 0.15855797 0.92200005
0.23753604 0.15855798 0.92200011
0.21918501 0.16309986 0.92200005
0.22191401 0.16048005 0.92000002
0.22603403 0.16002685 0.92000002
0.23244296 0.16002685 0.92000002
0.2372804 0.16020079 0.921
0.24120624 0.16037473 0.92200005
0.21841483 0.16752055 0.92133331
0.21703558 0.17284302 0.92066669
0.21596932 0.17720333 0.92133331
0.21615453 0.1824601 0.92159998
0.21661587 0.1872627 0.92200005
0.21719274 0.19293539 0.92133331
0.2173499 0.1976182 0.92200005
0.21703558 0.20186643 0.92066669
0.21367969 0.2094271 0.92200005
0.21606024 0.20706765 0.92119998
0.21257864 0.21378732 0.92200005
0.2150473 0.21169205 0.92000002
0.20920905 0.2177012 0.92050004
0.21230063 0.21803689 0.92000002
0.20817438 0.22032763 0.92200005
0.21069726 0.22190346 0.921
-0.11358137 0.1484582 0.92700005
-0.13184069 0.15310773 0.92566675
-0.12780668 0.15300809 0.92580014
-0.12267419 0.15103403 0.92600012
-0.11711334 0.15167698 0.92575014
-0.11253732 0.15103403 0.92600012
-0.10844821 0.15065941 0.92650008
0.22314122 0.15850455 0.92700005
0.22759007 0.15656461 0.92633343
0.23311993 0.1574779 0.92633343
0.2368087 0.15686904 0.92633343
0.21882796 0.16283783 0.92566675
0.21829283 0.16745573 0.92600006
0.21637188 0.17195641 0.92566675
0.21483846 0.18499035 0.92700005
0.21483846 0.18773025 0.92700005
0.21483847 0.19229677 0.92700005
0.21621606 0.1918819 0.92500007
0.21483846 0.19777659 0.92700005
0.21621606 0.19734988 0.92500007
0.21468395 0.20310894 0.92633343
0.21621606 0.20281789 0.92500007
0.21437496 0.20737454 0.92500007
0.21284024 0.21223539 0.92633343
-0.13088907 0.14925894 0.93200004
-0.12708941 0.14915219 0.93133342
-0.12241005 0.14818056 0.93100005
-0.11777751 0.14818057 0.93100011
-0.11177673 0.14790241 0.93040007
-0.10758492 0.14818154 0.93100005
0.23454732 0.14925894 0.93200004
0.23800071 0.14863968 0.93100011
-0.1306082 0.15077116 0.93000007
-0.12783165 0.15077116 0.93000007
0.22781011 0.15368402 0.93100005
0.23235944 0.15271175 0.9306668
0.23751466 0.15283273 0.93000019
0.24011235 0.15109541 0.93200004
0.21923579 0.15993375 0.93000007
0.22275861 0.15786995 0.93080008
0.23311849 0.15626872 0.93000007
0.23774604 0.15626872 0.93000007
0.24103984 0.15752301 0.93200004
0.21854404 0.16285844 0.93100005
0.21785228 0.16762352 0.93200004
0.21414225 0.18323344 0.93200004
0.21599725 0.18323344 0.93200004
0.21368271 0.18742153 0.93000007
0.21368271 0.19200282 0.93000007
0.21414225 0.19700688 0.93200004
0.21553373 0.19841664 0.93000007
0.21398906 0.2023714 0.93133342
0.21368271 0.20757923 0.93000007
0.20998065 0.2149093 0.93000007
0.21151707 0.21399312 0.93133342
-0.12972631 0.14452074 0.93700004
-0.11853655 0.14452074 0.93700004
-0.11200919 0.14452074 0.93700004
-0.10723323 0.14390492 0.93599999
-0.1323833 0.1480552 0.93600005
-0.12772489 0.14713204 0.93600005
-0.12209382 0.14615878 0.93566674
-0.11735305 0.14605466 0.93500006
-0.1127006 0.14605466 0.93500012
-0.10719537 0.1461588 0.93566674
0.23298745 0.14923072 0.93566674
0.23623279 0.14789702 0.93500006
0.22461587 0.15375231 0.93700004
0.2281011 0.15174389 0.93599999
0.23021075 0.15005969 0.93700004
0.22181296 0.15660547 0.93566674
0.22599742 0.15526651 0.93500006
0.24274622 0.15710887 0.93500006
0.21839935 0.16298386 0.93700004
0.21715604 0.16667649 0.93700004
0.21902101 0.17775436 0.93700004
0.21529108 0.19806378 0.93700004
0.21319835 0.2079953 0.93600005
0.21297057 0.2114588 0.93500006
-0.131356 0.14343579 0.94200003
-0.1274707 0.14420962 0.94099998
-0.12270208 0.14410812 0.94033337
-0.11682037 0.14405486 0.94119996
-0.11236781 0.14313124 0.94000006
-0.10956142 0.14313124 0.94000006
-0.13282481 0.14642525 0.94133341
0.22393955 0.14900428 0.94200003
0.2275269 0.14889883 0.94133341
0.23188329 0.14868791 0.94000006
0.21831481 0.15457277 0.94200003
0.22195943 0.15264368 0.94155556
0.2262705 0.15146625 0.94000006
0.21886405 0.15800439 0.94033337
0.21456499 0.16014126 0.94200003
0.21714559 0.16182446 0.94100004
0.21785131 0.16906236 0.94000006
0.21800582 0.17289066 0.94066668
0.21831481 0.18241522 0.94200003
0.21426129 0.19327693 0.94066668
0.2137882 0.19836238 0.94133341
0.2134757 0.20268881 0.94133341
0.21281916 0.20760563 0.94050002
0.2124643 0.21281675 0.94100004
-0.13271478 0.13830635 0.94500005
-0.13242166 0.14174709 0.94560015
-0.1272056 0.14124779 0.94600004
-0.12256416 0.14132196 0.94650006
-0.1178545 0.14132196 0.94650006
-0.11254471 0.14146367 0.94620007
-0.13647655 0.14761673 0.94500005
-0.13459566 0.14575465 0.94500005
0.22218353 0.14878207 0.94650006
0.22701204 0.14699516 0.94700015
0.23209372 0.14705698 0.94620007
0.23725595 0.14785105 0.94650006
0.24140416 0.14808536 0.94800007
0.21970536 0.15368931 0.94800007
0.21687508 0.15835929 0.94800007
0.2178185 0.16489723 0.94800007
0.2178185 0.16676521 0.94800007
0.21970536 0.17984113 0.94800007
0.21876192 0.1826431 0.94800007
0.21524832 0.18858238 0.94500005
0.21524832 0.19044445 0.94500005
0.21319006 0.19768892 0.94700003
0.21193415 0.20204163 0.94700003
0.21215795 0.20786093 0.94800013
-0.13243531 0.13807896 0.95200008
-0.12774448 0.13903815 0.95000005
-0.12207197 0.13903815 0.95000005
-0.11734489 0.13903815 0.95000005
-0.11297344 0.13947719 0.95300007
-0.10823143 0.13947719 0.95300007
0.23319337 0.13947719 0.95300007
-0.11072697 0.14091007 0.95000005
-0.10728303 0.14135504 0.95300007
0.22465776 0.14229396 0.95300007
0.22749934 0.14324097 0.95128584
0.23193151 0.14265999 0.95074999
0.23793539 0.14229396 0.95300007
0.24172899 0.14323288 0.95300007
0.22285862 0.14642791 0.95180005
0.2375609 0.14581829 0.95150012
0.24134851 0.14581828 0.95150006
0.21873757 0.15245996 0.95200008
0.22016887 0.15120566 0.95000005
0.21767429 0.15613163 0.95150006
0.21896733 0.16952261 0.95300007
0.21827804 0.17273283 0.95000005
0.2181053 0.17810011 0.95200008
0.22016887 0.17834862 0.95000005
0.21755354 0.1820631 0.95180005
0.21638721 0.18770826 0.95000005
0.21138012 0.20332371 0.95300007
0.21138012 0.20614047 0.95300007
0.21260554 0.21297927 0.95000005
0.21327692 0.22585778 0.95300007
0.21517374 0.22585778 0.95300007
-0.13072696 0.13454592 0.95800006
-0.1309512 0.13663362 0.9550001
-0.12713464 0.13701542 0.9568001
-0.1225632 0.13739295 0.9568001
-0.11731941 0.13730526 0.9575001
-0.11281203 0.13754767 0.95700014
-0.10823964 0.13821152 0.95725
0.22798041 0.13976991 0.95500004
0.23083159 0.13976991 0.95500004
0.23741522 0.13928704 0.95600003
0.24033551 0.13976991 0.95500004
0.22306035 0.14320485 0.95700014
0.22583644 0.14020899 0.95800006
0.21820942 0.14964744 0.95800006
0.22073983 0.14728968 0.95740014
0.21752611 0.15294239 0.9550001
0.21717338 0.17246027 0.9568001
0.21679203 0.17736354 0.9568001
0.2156253 0.18210995 0.95500004
0.21660852 0.18725455 0.95725012
0.21630268 0.19306433 0.95800006
0.21182373 0.19998686 0.95500004
0.21182373 0.20186864 0.95500004
0.21182373 0.20939577 0.95500004
0.21182373 0.21127754 0.95500004
0.21439591 0.22326739 0.95800006
0.21630266 0.22326739 0.95800006
0.21439591 0.22704276 0.95800006
-0.13140926 0.1333506 0.96300006
-0.12703352 0.13432059 0.96180004
-0.11679088 0.13496724 0.96100003
-0.12278406 0.13524814 0.96300006
-0.11990901 0.13524814 0.96300006
-0.11308397 0.13605449 0.96200001
-0.10721451 0.13670842 0.96260005
-0.10457535 0.13809446 0.96300006
0.22318172 0.13904323 0.96300006
0.22749624 0.13768195 0.96233338
0.23252355 0.13795006 0.96200007
0.23731133 0.13795006 0.96200001
0.2404321 0.13714568 0.96300006
0.21919647 0.1427381 0.96233338
0.22215723 0.14195925 0.96133339
0.21816218 0.14742891 0.96200001
0.21648429 0.15257819 0.96220011
0.21698003 0.15579687 0.96100003
0.2180876 0.16727313 0.9616667
0.21624745 0.17207235 0.96200001
0.2152165 0.17674772 0.96166676
0.21506731 0.1823073 0.96100008
0.21551488 0.18743058 0.96300006
0.21551488 0.19217443 0.96300006
0.21588217 0.19776335 0.96250004
0.2150673 0.21828574 0.96100003
0.21300811 0.22289297 0.96250004
0.2150673 0.22112614 0.96100003
0.20976476 0.22727898 0.96300006
0.2124774 0.22746904 0.96140003
0.20976476 0.23107406 0.96300006
0.21168147 0.23012529 0.96300006
0.2150673 0.23154095 0.96100003
0.20720915 0.23645043 0.96300006
-0.13105899 0.13206732 0.96750003
-0.12797327 0.13249706 0.96600002
-0.12205905 0.1322014 0.96675003
-0.1176416 0.1321336 0.96800005
-0.11282495 0.13213359 0.96800011
-0.10747035 0.13349639 0.96750003
0.22457226 0.13418142 0.96900004
0.22746524 0.13418142 0.96900004
0.23035821 0.13418142 0.96900004
-0.11163051 0.13566947 0.96600002
-0.10490113 0.13566947 0.96600002
0.22234648 0.13781707 0.96771437
0.22644058 0.13630396 0.96600002
0.23325118 0.1360908 0.96900004
0.23807281 0.13800016 0.96900004
0.24096578 0.1360908 0.96900004
0.21810895 0.14233157 0.96600002
0.21748331 0.14732155 0.96750003
0.21685766 0.15136573 0.96900004
0.21810895 0.15851092 0.96600002
0.21652196 0.16924083 0.96750003
0.21618627 0.17183511 0.96600002
0.21426359 0.1784972 0.96600002
0.21384251 0.18153815 0.96700001
0.21470723 0.187452 0.96800005
0.21492901 0.19146241 0.96900004
0.21492901 0.19814518 0.96900004
0.21492901 0.20100923 0.96900004
0.21342145 0.21765015 0.96800005
0.21183443 0.22197938 0.96719998
0.20914306 0.22869503 0.96900004
0.21041824 0.22513184 0.96600002
0.20817676 0.23340073 0.96675003
-0.1329103 0.12911615 0.97400004
-0.12612519 0.12911615 0.97400004
-0.12199697 0.12885103 0.97200006
-0.11824825 0.12898359 0.97300005
-0.13070275 0.1307663 0.97200006
-0.12780082 0.1307663 0.97200006
-0.1248989 0.1307663 0.97200006
-0.10813218 0.13140473 0.97200006
0.22259435 0.13377573 0.97300005
0.22759239 0.13194948 0.97366667
0.23284273 0.13277128 0.97266674
0.23775037 0.13372229 0.9740001
0.24123985 0.1339142 0.97400004
0.21968944 0.13761023 0.97300005
0.22139829 0.13651213 0.97200006
0.23808825 0.13665259 0.97300005
0.2184723 0.14245442 0.97333336
0.21797663 0.14734873 0.97400004
0.21603802 0.15022756 0.97400004
0.21752904 0.15853782 0.97200006
0.21849635 0.16236837 0.97200006
0.21703205 0.16663215 0.97266674
0.21409942 0.17229857 0.97400004
0.21559444 0.17290241 0.97200006
0.21387962 0.17691281 0.97300005
0.21559443 0.17673296 0.97200006
0.21291032 0.18266553 0.97300005
0.21291032 0.18745965 0.97300005
0.21291032 0.19225276 0.97300005
0.21559443 0.19397046 0.97200006
0.21306022 0.19757996 0.97280008
0.21559443 0.19588573 0.97200006
0.21276043 0.20226355 0.97320002
0.21339497 0.20711192 0.97300005
0.2133067 0.21277583 0.97333336
0.211942 0.21669815 0.97300005
0.20979056 0.22461489 0.97200006
0.21097369 0.22197109 0.97300005
0.20878594 0.22748065 0.97333336
0.20814106 0.2325933 0.97333336
-0.1313751 0.12951383 0.97700006
-0.1279721 0.12806998 0.97700006
-0.12262452 0.1275887 0.97700006
-0.11776309 0.12855127 0.97700006
-0.11290166 0.12951383 0.97700006
-0.10804024 0.12951383 0.97700012
-0.10415109 0.12951383 0.97700006
-0.10609566 0.13240153 0.97700006
0.22350945 0.13143897 0.97700006
0.23712145 0.13143897 0.97700006
0.24003832 0.13143897 0.97700006
0.21864802 0.14106461 0.97700006
0.21670344 0.15261538 0.97700006
0.21475887 0.16897899 0.97700006
0.21378657 0.17860463 0.97700006
0.21281429 0.18534259 0.97700006
0.21086971 0.20459388 0.97700006
0.21281429 0.20844415 0.97700006
0.2121661 0.2122944 0.97700012
0.21086971 0.21806979 0.97700006
0.21086971 0.22192004 0.97700006
0.20892514 0.22577031 0.97700006
-0.10870373 0.12449836 0.98300004
-0.13177851 0.12701496 0.98000002
-0.12787743 0.12604944 0.98000002
-0.12239933 0.12643531 0.98300004
-0.11732874 0.12720791 0.98150003
-0.11244492 0.12720791 0.98150003
-0.10756109 0.12720791 0.98150003
-0.10447089 0.12798049 0.98000002
0.22322048 0.12991153 0.98000002
0.22712159 0.12991153 0.98000002
0.2329732 0.12991153 0.98000002
0.23882484 0.12991153 0.98000002
0.21999079 0.13224617 0.98300004
0.22172152 0.13210967 0.98200005
0.23759942 0.13030922 0.98300004
0.24151245 0.13030922 0.98300004
0.21893965 0.1382747 0.98180008
0.22126994 0.13570465 0.98000002
0.21770155 0.14267987 0.98150003
0.21736887 0.14729092 0.98000002
0.21607776 0.15258417 0.98300004
0.21711861 0.15733165 0.98240006
0.21705601 0.16226894 0.98300004
0.21307842 0.17309609 0.98180008
0.2137945 0.17749476 0.98150003
0.21184097 0.18329675 0.98150003
0.21216473 0.18744931 0.98300004
0.21216473 0.19229171 0.98300004
0.21173307 0.19769751 0.98100007
0.21184097 0.20263377 0.98150003
0.21184097 0.20843871 0.98150003
0.21216473 0.21262968 0.98300004
0.21151721 0.21680836 0.98000002
-0.13159488 0.12271946 0.98740005
-0.12774384 0.12396823 0.98650002
-0.12283663 0.12396824 0.98650008
-0.11737236 0.12381154 0.98680001
-0.11236225 0.12364378 0.98650002
-0.10827342 0.12318481 0.98800004
-0.13285425 0.12513162 0.98800004
-0.12498838 0.12513162 0.98800004
-0.1059792 0.12578055 0.98800009
0.222093 0.12902522 0.98800004
0.22700918 0.12902522 0.98800009
0.23746216 0.12882933 0.98650002
0.24004334 0.12863344 0.98500007
0.21809056 0.13275741 0.98680013
0.22043838 0.13251524 0.98500007
0.21684562 0.13757665 0.98650002
0.21586387 0.14243628 0.98650002
0.2159946 0.14783338 0.98620003
0.21390039 0.15409938 0.98650002
0.21521036 0.15238687 0.98800004
0.21455689 0.15580595 0.98500007
0.21619359 0.15822729 0.98800004
0.21455689 0.16162862 0.98500007
0.21521036 0.16212091 0.98800004
0.21455689 0.1693922 0.98500007
0.21717684 0.16601452 0.98800009
0.2132439 0.17866874 0.98800004
0.2125964 0.18103756 0.98500007
0.21095666 0.20755668 0.98650002
0.21127743 0.21371122 0.98800004
0.20931096 0.21663143 0.98800004
0.21095666 0.21727593 0.98650002
0.21127743 0.22247183 0.98800004
0.21127743 0.22636545 0.98800004
-0.11747815 0.11965343 0.99100006
-0.1123309 0.1191213 0.9920001
-0.1095884 0.11965343 0.99100006
-0.13168265 0.12001564 0.99400002
-0.12753308 0.12081089 0.99250007
-0.12236022 0.12136048 0.99220002
-0.11747815 0.12160614 0.99100006
-0.11353327 0.12160614 0.99100006
-0.10735059 0.12175222 0.99220008
-0.10398492 0.1239329 0.99400002
-0.10306802 0.12730527 0.99280006
0.21832937 0.12922117 0.99325001
0.22222774 0.12674221 0.99300003
0.22722624 0.12677437 0.99325001
0.23210984 0.12804601 0.99300003
0.23693252 0.12765574 0.99250007
0.24025822 0.12589152 0.99400002
0.21652132 0.13267154 0.99100006
0.21619058 0.13645625 0.99250007
0.21586384 0.15089688 0.99100006
0.2145389 0.15722956 0.99400002
0.21685006 0.16847132 0.99100006
0.2125605 0.19248486 0.99400008
0.21213281 0.19795965 0.9920001
0.21191896 0.20264384 0.99100006
0.20994653 0.20850199 0.99100006
0.21125051 0.20588407 0.99250007
0.2090513 0.21250866 0.99300003
0.21125051 0.21175109 0.99250007
0.20861661 0.21761811 0.99250007
0.2090513 0.22294483 0.99300003
0.21125051 0.22152944 0.99250007
0.20914082 0.22785573 0.99280006
0.21125051 0.2254408 0.99250007
0.20994653 0.2338873 0.99100006
0.21058208 0.23165739 0.99400002
0.2092751 0.23815267 0.99250007
0.20860368 0.24145052 0.99400002
0.21058208 0.24145052 0.99400002
-0.1201738 0.11841332 0.99700004
-0.11719723 0.11841332 0.99700004
-0.11322847 0.11743105 0.99700004
-0.10628314 0.12037786 0.99700004
-0.10330658 0.12332467 0.99700004
0.21915516 0.12430694 0.99700004
0.22233017 0.12273531 0.99700004
0.22709268 0.12332466 0.9970001
0.23172292 0.12365209 0.9970001
0.23751068 0.1238158 0.99700004
0.24098334 0.12430694 0.99700004
0.21816298 0.12725374 0.99700004
0.23304582 0.12627147 0.99700004
0.23602238 0.12627147 0.99700004
0.2151864 0.13314736 0.99700004
0.2151864 0.14886367 0.99700004
0.2151864 0.15279274 0.99700004
0.21320203 0.15770409 0.99700004
0.2151864 0.15966862 0.99700004
0.2151864 0.16261543 0.99700004
0.2151864 0.16556224 0.99700004
0.21320203 0.1891367 0.99700004
0.21121764 0.1989594 0.99700004
0.21121764 0.20288847 0.9970001
0.20923327 0.20779982 0.99700004
0.20791034 0.21271119 0.9970001
0.20724888 0.21664025 0.99700004
0.2072489 0.22253387 0.9970001
0.20724888 0.22842747 0.99700004
0.20923327 0.23333882 0.99700004
0.20791034 0.23694047 0.9970001
0.20724888 0.24119698 0.99700004
0.18938947 0.24610832 0.99700004
-0.13148233 0.11876963 1
-0.12796186 0.11822961 1.001
-0.12299853 0.11765744 1.0006001
