# .PCD v0.7 - Point Cloud Data file format
VERSION 0.7
FIELDS x y z
SIZE 4 4 4
TYPE F F F
COUNT 1 1 1
WIDTH 1352
HEIGHT 1
VIEWPOINT 0 0 0 1 0 0 0
POINTS 1352
DATA ascii
0.20570573 -0.10152858 0.92700005
0.20747145 -0.10152858 0.92700005
0.20923716 -0.10152858 0.92700005
0.21100287 -0.10152858 0.92700005
0.21230954 -0.10130953 0.92500007
0.21407144 -0.10130953 0.92500007
0.21630001 -0.10152858 0.92700005
0.21759525 -0.10130953 0.92500007
0.21935716 -0.10130953 0.92500007
0.22111906 -0.10130953 0.92500007
0.22288097 -0.10130953 0.92500007
0.22464287 -0.10130953 0.92500007
0.22640477 -0.10130953 0.92500007
0.22866002 -0.10152858 0.92700005
0.23042573 -0.10152858 0.92700005
0.23219144 -0.10152858 0.92700005
0.23395716 -0.10152858 0.92700005
0.23572287 -0.10152858 0.92700005
0.23748858 -0.10152858 0.92700005
0.2392543 -0.10152858 0.92700005
0.24102001 -0.10152858 0.92700005
0.24278574 -0.10152858 0.92700005
0.24455145 -0.10152858 0.92700005
0.24631716 -0.10152858 0.92700005
0.24808288 -0.10152858 0.92700005
0.24984859 -0.10152858 0.92700005
0.2516143 -0.10152858 0.92700005
0.25283334 -0.10130953 0.92500007
0.25459525 -0.10130953 0.92500007
0.25635716 -0.10130953 0.92500007
0.25811908 -0.10130953 0.92500007
0.25988096 -0.10130953 0.92500007
0.26079431 -0.10098096 0.92200005
0.2625505 -0.10098096 0.92200005
0.26373336 -0.10076191 0.92000002
0.26548573 -0.10076191 0.92000002
0.26723811 -0.10076191 0.92000002
0.26899049 -0.10076191 0.92000002
0.27074286 -0.10076191 0.92000002
0.27249527 -0.10076191 0.92000002
0.27484384 -0.10098096 0.92200005
0.27660003 -0.10098096 0.92200005
0.27835619 -0.10098096 0.92200005
0.28011239 -0.10098096 0.92200005
0.28186858 -0.10098096 0.92200005
0.28454763 -0.10130953 0.92500007
0.28630954 -0.10130953 0.92500007
0.28807145 -0.10130953 0.92500007
0.28983337 -0.10130953 0.92500007
0.29159525 -0.10130953 0.92500007
0.29335716 -0.10130953 0.92500007
0.29511908 -0.10130953 0.92500007
0.29688096 -0.10130953 0.92500007
0.2976743 -0.10098096 0.92200005
0.29943049 -0.10098096 0.92200005
0.30118668 -0.10098096 0.92200005
0.30294287 -0.10098096 0.92200005
0.30469906 -0.10098096 0.92200005
0.30645525 -0.10098096 0.92200005
0.30821145 -0.10098096 0.92200005
0.30996764 -0.10098096 0.92200005
0.31172383 -0.10098096 0.92200005
0.31280002 -0.10076191 0.92000002
0.3145524 -0.10076191 0.92000002
0.31527334 -0.10043334 0.91700006
0.31632859 -0.1002143 0.91500002
0.31563812 -0.099447623 0.90800005
0.31631908 -0.099119052 0.90500003
0.31734002 -0.098900005 0.90300006
0.31906003 -0.098900005 0.90300006
0.31900382 -0.098352388 0.89800006
0.3182143 -0.097585723 0.89100003
0.31847525 -0.097147629 0.88700002
0.31836003 -0.096600004 0.88200003
0.3193143 -0.096380956 0.88000005
0.32026097 -0.096161909 0.87800002
0.32010001 -0.095614292 0.87300003
0.32102573 -0.095395245 0.87100005
0.32194382 -0.095176198 0.86900002
0.32285431 -0.094957151 0.86700004
0.32375717 -0.094738103 0.86500007
0.32277146 -0.093971431 0.85800004
0.32213718 -0.09331429 0.85200006
0.32110003 -0.092547625 0.84500003
0.32041812 -0.091890484 0.83900005
0.32124859 -0.091671437 0.83700001
0.32130003 -0.091233343 0.83300006
0.32133621 -0.090795241 0.82900006
0.32291526 -0.090795241 0.82900006
0.32371145 -0.090576194 0.82700002
0.3229267 -0.089919053 0.82100004
0.32370001 -0.089700006 0.81900007
0.3260543 -0.089919053 0.82100004
0.32682002 -0.089700006 0.81900007
0.32838002 -0.089700006 0.81900007
0.32832858 -0.089261912 0.81500006
0.32947621 -0.089152388 0.81400001
0.3310267 -0.089152388 0.81400001
0.33257717 -0.089152388 0.81400001
0.33412763 -0.089152388 0.81400001
0.33567813 -0.089152388 0.81400001
0.3372286 -0.089152388 0.81400001
0.33794668 -0.088933341 0.81200004
0.33949336 -0.088933341 0.81200004
0.34104002 -0.088933341 0.81200004
0.3425867 -0.088933341 0.81200004
0.34413335 -0.088933341 0.81200004
0.34568003 -0.088933341 0.81200004
0.34722668 -0.088933341 0.81200004
0.34877336 -0.088933341 0.81200004
0.35032001 -0.088933341 0.81200004
-0.16578573 -0.088785723 0.82500005
-0.1642143 -0.088785723 0.82500005
-0.16224858 -0.088570483 0.82300001
-0.16068096 -0.088570483 0.82300001
-0.15911335 -0.088570483 0.82300001
-0.15754573 -0.088570483 0.82300001
-0.1559781 -0.088570483 0.82300001
-0.15403526 -0.088355243 0.82100004
-0.15247144 -0.088355243 0.82100004
-0.15090764 -0.088355243 0.82100004
-0.14934382 -0.088355243 0.82100004
-0.14778002 -0.088355243 0.82100004
-0.1462162 -0.088355243 0.82100004
-0.1446524 -0.088355243 0.82100004
-0.14308858 -0.088355243 0.82100004
-0.14152478 -0.088355243 0.82100004
-0.14030191 -0.088570483 0.82300001
-0.1387343 -0.088570483 0.82300001
-0.13683334 -0.088355243 0.82100004
-0.13294001 -0.093305722 0.86700004
-0.13128857 -0.093305722 0.86700004
-0.13397335 -0.096426673 0.89600003
-0.13226667 -0.096426673 0.89600003
-0.13085143 -0.096641913 0.89800006
-0.12914096 -0.096641913 0.89800006
-0.12984286 -0.098471433 0.91500002
-0.1288 -0.099009529 0.92000002
-0.1277381 -0.099547625 0.92500007
-0.1259762 -0.099547625 0.92500007
-0.12448286 -0.099762864 0.92700005
-0.12271715 -0.099762864 0.92700005
-0.12134287 -0.10008572 0.93000007
-0.11957144 -0.10008572 0.93000007
-0.11805334 -0.10030096 0.93200004
-0.1162781 -0.10030096 0.93200004
-0.11450286 -0.10030096 0.93200004
-0.11272763 -0.10030096 0.93200004
-0.11095238 -0.10030096 0.93200004
-0.10917715 -0.10030096 0.93200004
-0.10740191 -0.10030096 0.93200004
-0.10562667 -0.10030096 0.93200004
-0.10385144 -0.10030096 0.93200004
-0.1020762 -0.10030096 0.93200004
-0.10008572 -0.10008572 0.93000007
-0.098314293 -0.10008572 0.93000007
-0.096542865 -0.10008572 0.93000007
-0.094771437 -0.10008572 0.93000007
-0.09300001 -0.10008572 0.93000007
-0.091228575 -0.10008572 0.93000007
-0.089457147 -0.10008572 0.93000007
-0.087685719 -0.10008572 0.93000007
-0.085914291 -0.10008572 0.93000007
-0.084142864 -0.10008572 0.93000007
-0.082371436 -0.10008572 0.93000007
-0.080600008 -0.10008572 0.93000007
-0.078574292 -0.099762864 0.92700005
-0.077057146 -0.10008572 0.93000007
-0.075285718 -0.10008572 0.93000007
-0.073277146 -0.099762864 0.92700005
-0.071742862 -0.10008572 0.93000007
-0.069971435 -0.10008572 0.93000007
-0.068200007 -0.10008572 0.93000007
-0.066428579 -0.10008572 0.93000007
-0.064796194 -0.10030096 0.93200004
-0.063020959 -0.10030096 0.93200004
-0.061245717 -0.10030096 0.93200004
-0.059470478 -0.10030096 0.93200004
-0.057695244 -0.10030096 0.93200004
-0.055920005 -0.10030096 0.93200004
-0.054144766 -0.10030096 0.93200004
-0.052369528 -0.10030096 0.93200004
-0.050594289 -0.10030096 0.93200004
-0.04881905 -0.10030096 0.93200004
-0.04694286 -0.10008572 0.93000007
-0.045268573 -0.10030096 0.93200004
-0.043493338 -0.10030096 0.93200004
-0.041628573 -0.10008572 0.93000007
-0.039942861 -0.10030096 0.93200004
-0.038085718 -0.10008572 0.93000007
-0.036314286 -0.10008572 0.93000007
-0.034542859 -0.10008572 0.93000007
-0.032771431 -0.10008572 0.93000007
-0.031000001 -0.10008572 0.93000007
-0.029228574 -0.10008572 0.93000007
-0.027457144 -0.10008572 0.93000007
-0.025685716 -0.10008572 0.93000007
-0.023914287 -0.10008572 0.93000007
-0.022142859 -0.10008572 0.93000007
-0.02037143 -0.10008572 0.93000007
-0.018600002 -0.10008572 0.93000007
-0.016828572 -0.10008572 0.93000007
-0.015057144 -0.10008572 0.93000007
-0.013285715 -0.10008572 0.93000007
-0.011514287 -0.10008572 0.93000007
-0.0097428579 -0.10008572 0.93000007
-0.0079714293 -0.10008572 0.93000007
-0.0062000002 -0.10008572 0.93000007
-0.004414286 -0.099762864 0.92700005
-0.0026428574 -0.099547625 0.92500007
-0.00088095246 -0.099547625 0.92500007
0.00088285719 -0.099762864 0.92700005
0.0026485715 -0.099762864 0.92700005
0.004414286 -0.099762864 0.92700005
0.0061800005 -0.099762864 0.92700005
0.0079457145 -0.099762864 0.92700005
0.0097114295 -0.099762864 0.92700005
0.011477144 -0.099762864 0.92700005
0.013214286 -0.099547625 0.92500007
0.014976191 -0.099547625 0.92500007
0.016738096 -0.099547625 0.92500007
0.018500002 -0.099547625 0.92500007
0.020261906 -0.099547625 0.92500007
0.02202381 -0.099547625 0.92500007
0.023785716 -0.099547625 0.92500007
0.02554762 -0.099547625 0.92500007
0.027309526 -0.099547625 0.92500007
0.02907143 -0.099547625 0.92500007
0.030833336 -0.099547625 0.92500007
0.03259524 -0.099547625 0.92500007
0.034357145 -0.099547625 0.92500007
0.036119051 -0.099547625 0.92500007
0.037880953 -0.099547625 0.92500007
0.039642859 -0.099547625 0.92500007
0.041404765 -0.099547625 0.92500007
0.043166671 -0.099547625 0.92500007
0.044928573 -0.099547625 0.92500007
0.046690479 -0.099547625 0.92500007
0.048452385 -0.099547625 0.92500007
0.050214291 -0.099547625 0.92500007
0.051976193 -0.099547625 0.92500007
0.053738099 -0.099547625 0.92500007
0.055500004 -0.099547625 0.92500007
0.05726191 -0.099547625 0.92500007
0.070971437 -0.099009529 0.92000002
0.072723813 -0.099009529 0.92000002
0.074476197 -0.099009529 0.92000002
0.075980008 -0.098686673 0.91700006
0.077980958 -0.099009529 0.92000002
0.079473339 -0.098686673 0.91700006
0.081485718 -0.099009529 0.92000002
0.08296667 -0.098686673 0.91700006
0.08471334 -0.098686673 0.91700006
0.086460009 -0.098686673 0.91700006
0.088206671 -0.098686673 0.91700006
0.090247624 -0.099009529 0.92000002
0.092000008 -0.099009529 0.92000002
0.093752384 -0.099009529 0.92000002
0.095193341 -0.098686673 0.91700006
0.096940003 -0.098686673 0.91700006
0.098686673 -0.098686673 0.91700006
0.10043334 -0.098686673 0.91700006
0.10218 -0.098686673 0.91700006
0.1037 -0.098471433 0.91500002
0.10544287 -0.098471433 0.91500002
0.10718572 -0.098471433 0.91500002
0.10892858 -0.098471433 0.91500002
0.11091334 -0.098686673 0.91700006
0.11266001 -0.098686673 0.91700006
0.11440668 -0.098686673 0.91700006
0.11615334 -0.098686673 0.91700006
0.11790001 -0.098686673 0.91700006
0.11964668 -0.098686673 0.91700006
0.12139334 -0.098686673 0.91700006
0.12287144 -0.098471433 0.91500002
0.12366096 -0.097718105 0.90800005
0.12470001 -0.097180009 0.90300006
0.12572001 -0.096641913 0.89800006
0.12686287 -0.096211433 0.89400005
0.12784667 -0.095673338 0.88900006
0.12881143 -0.095135242 0.88400006
0.13020001 -0.094920009 0.88200003
0.13158096 -0.09470477 0.88000005
0.1329543 -0.09448953 0.87800002
0.15626572 -0.099762864 0.92700005
0.15803143 -0.099762864 0.92700005
0.15945239 -0.099547625 0.92500007
0.16121429 -0.099547625 0.92500007
0.16297621 -0.099547625 0.92500007
0.1647381 -0.099547625 0.92500007
0.16650002 -0.099547625 0.92500007
0.16826192 -0.099547625 0.92500007
0.17002381 -0.099547625 0.92500007
0.17178573 -0.099547625 0.92500007
0.17354763 -0.099547625 0.92500007
0.17530954 -0.099547625 0.92500007
0.17707144 -0.099547625 0.92500007
0.17922001 -0.099762864 0.92700005
0.18098572 -0.099762864 0.92700005
0.18275145 -0.099762864 0.92700005
0.18451716 -0.099762864 0.92700005
0.18628287 -0.099762864 0.92700005
0.18804859 -0.099762864 0.92700005
0.1898143 -0.099762864 0.92700005
0.19158001 -0.099762864 0.92700005
0.19292858 -0.099547625 0.92500007
0.1946905 -0.099547625 0.92500007
0.19687715 -0.099762864 0.92700005
0.19864286 -0.099762864 0.92700005
0.20040858 -0.099762864 0.92700005
0.20217431 -0.099762864 0.92700005
0.20394002 -0.099762864 0.92700005
0.20570573 -0.099762864 0.92700005
0.20747145 -0.099762864 0.92700005
0.20923716 -0.099762864 0.92700005
0.21054763 -0.099547625 0.92500007
0.21276858 -0.099762864 0.92700005
0.2145343 -0.099762864 0.92700005
0.21630001 -0.099762864 0.92700005
0.21759525 -0.099547625 0.92500007
0.21935716 -0.099547625 0.92500007
0.22111906 -0.099547625 0.92500007
0.22336288 -0.099762864 0.92700005
0.22464287 -0.099547625 0.92500007
0.22640477 -0.099547625 0.92500007
0.22816668 -0.099547625 0.92500007
0.22992858 -0.099547625 0.92500007
0.2316905 -0.099547625 0.92500007
0.23395716 -0.099762864 0.92700005
0.23572287 -0.099762864 0.92700005
0.23748858 -0.099762864 0.92700005
0.2392543 -0.099762864 0.92700005
0.24102001 -0.099762864 0.92700005
0.24278574 -0.099762864 0.92700005
0.24455145 -0.099762864 0.92700005
0.24631716 -0.099762864 0.92700005
0.24808288 -0.099762864 0.92700005
0.24984859 -0.099762864 0.92700005
0.2516143 -0.099762864 0.92700005
0.25283334 -0.099547625 0.92500007
0.25459525 -0.099547625 0.92500007
0.25635716 -0.099547625 0.92500007
0.25811908 -0.099547625 0.92500007
0.25988096 -0.099547625 0.92500007
0.26079431 -0.099224769 0.92200005
0.2625505 -0.099224769 0.92200005
0.26430669 -0.099224769 0.92200005
0.26462001 -0.098686673 0.91700006
0.26723811 -0.099009529 0.92000002
0.26899049 -0.099009529 0.92000002
0.27133146 -0.099224769 0.92200005
0.27308765 -0.099224769 0.92200005
0.27484384 -0.099224769 0.92200005
0.27660003 -0.099224769 0.92200005
0.27835619 -0.099224769 0.92200005
0.28011239 -0.099224769 0.92200005
0.28186858 -0.099224769 0.92200005
0.28454763 -0.099547625 0.92500007
0.28630954 -0.099547625 0.92500007
0.28807145 -0.099547625 0.92500007
0.28983337 -0.099547625 0.92500007
0.29159525 -0.099547625 0.92500007
0.29335716 -0.099547625 0.92500007
0.29511908 -0.099547625 0.92500007
0.29688096 -0.099547625 0.92500007
0.29864287 -0.099547625 0.92500007
0.30040479 -0.099547625 0.92500007
0.3021667 -0.099547625 0.92500007
0.30294287 -0.099224769 0.92200005
0.30469906 -0.099224769 0.92200005
0.30645525 -0.099224769 0.92200005
0.30821145 -0.099224769 0.92200005
0.30996764 -0.099224769 0.92200005
0.31172383 -0.099224769 0.92200005
0.31280002 -0.099009529 0.92000002
0.3145524 -0.099009529 0.92000002
0.31458575 -0.098471433 0.91500002
0.31632859 -0.098471433 0.91500002
0.31563812 -0.097718105 0.90800005
0.31631908 -0.097395241 0.90500003
0.31734002 -0.097180009 0.90300006
0.31835335 -0.096964769 0.90100002
0.31829336 -0.096426673 0.89600003
0.31928572 -0.096211433 0.89400005
0.31919336 -0.095673338 0.88900006
0.31908193 -0.095135242 0.88400006
0.3193143 -0.09470477 0.88000005
0.31916669 -0.094166674 0.87500006
0.32010001 -0.093951434 0.87300003
0.32102573 -0.093736194 0.87100005
0.32194382 -0.093520962 0.86900002
0.32210955 -0.093090482 0.86500007
0.32263431 -0.092767626 0.86200005
0.32277146 -0.092337146 0.85800004
0.32213718 -0.091691434 0.85200006
0.32224002 -0.091260955 0.84800005
0.32041812 -0.090292387 0.83900005
0.32124859 -0.090077147 0.83700001
0.32130003 -0.089646675 0.83300006
0.32133621 -0.089216195 0.82900006
0.32291526 -0.089216195 0.82900006
0.32371145 -0.089000955 0.82700002
0.3229267 -0.088355243 0.82100004
0.32449049 -0.088355243 0.82100004
0.32526001 -0.088140003 0.81900007
0.32682002 -0.088140003 0.81900007
0.32757813 -0.087924771 0.81700003
0.32832858 -0.087709531 0.81500006
0.32947621 -0.087601908 0.81400001
0.3310267 -0.087601908 0.81400001
0.33176002 -0.087386675 0.81200004
0.3333067 -0.087386675 0.81200004
0.33567813 -0.087601908 0.81400001
0.33640003 -0.087386675 0.81200004
0.33794668 -0.087386675 0.81200004
0.33949336 -0.087386675 0.81200004
0.34104002 -0.087386675 0.81200004
0.3425867 -0.087386675 0.81200004
0.34413335 -0.087386675 0.81200004
0.34568003 -0.087386675 0.81200004
0.34722668 -0.087386675 0.81200004
0.34877336 -0.087386675 0.81200004
0.35032001 -0.087386675 0.81200004
0.35186669 -0.087386675 0.81200004
0.35341334 -0.087386675 0.81200004
-0.16618763 -0.087425724 0.82700002
-0.1642143 -0.087214291 0.82500005
-0.16264287 -0.087214291 0.82500005
-0.16068096 -0.087002866 0.82300001
-0.15911335 -0.087002866 0.82300001
-0.15754573 -0.087002866 0.82300001
-0.1559781 -0.087002866 0.82300001
-0.15403526 -0.086791433 0.82100004
-0.15247144 -0.086791433 0.82100004
-0.15090764 -0.086791433 0.82100004
-0.14934382 -0.086791433 0.82100004
-0.14778002 -0.086791433 0.82100004
-0.1462162 -0.086791433 0.82100004
-0.1446524 -0.086791433 0.82100004
-0.14308858 -0.086791433 0.82100004
-0.14152478 -0.086791433 0.82100004
-0.14030191 -0.087002866 0.82300001
-0.1387343 -0.087002866 0.82300001
-0.13716668 -0.087002866 0.82300001
-0.13355334 -0.092077151 0.87100005
-0.13189429 -0.092077151 0.87100005
-0.13397335 -0.094720006 0.89600003
-0.13226667 -0.094720006 0.89600003
-0.13056001 -0.094720006 0.89600003
-0.13129811 -0.096517146 0.91300005
-0.12955905 -0.096517146 0.91300005
-0.1288 -0.097257152 0.92000002
-0.1277381 -0.097785719 0.92500007
-0.12624858 -0.097997151 0.92700005
-0.12448286 -0.097997151 0.92700005
-0.12271715 -0.097997151 0.92700005
-0.12134287 -0.098314293 0.93000007
-0.11957144 -0.098314293 0.93000007
-0.11805334 -0.098525718 0.93200004
-0.1162781 -0.098525718 0.93200004
-0.11487143 -0.098842867 0.93500006
-0.11309049 -0.098842867 0.93500006
-0.11130953 -0.098842867 0.93500006
-0.10952858 -0.098842867 0.93500006
-0.10774763 -0.098842867 0.93500006
-0.10562667 -0.098525718 0.93200004
-0.10385144 -0.098525718 0.93200004
-0.1020762 -0.098525718 0.93200004
-0.10008572 -0.098314293 0.93000007
-0.098314293 -0.098314293 0.93000007
-0.096542865 -0.098314293 0.93000007
-0.094771437 -0.098314293 0.93000007
-0.09300001 -0.098314293 0.93000007
-0.091228575 -0.098314293 0.93000007
-0.089457147 -0.098314293 0.93000007
-0.087685719 -0.098314293 0.93000007
-0.085914291 -0.098314293 0.93000007
-0.084142864 -0.098314293 0.93000007
-0.082371436 -0.098314293 0.93000007
-0.080600008 -0.098314293 0.93000007
-0.078828573 -0.098314293 0.93000007
-0.077057146 -0.098314293 0.93000007
-0.075285718 -0.098314293 0.93000007
-0.07351429 -0.098314293 0.93000007
-0.071742862 -0.098314293 0.93000007
-0.069971435 -0.098314293 0.93000007
-0.068200007 -0.098314293 0.93000007
-0.066428579 -0.098314293 0.93000007
-0.064796194 -0.098525718 0.93200004
-0.063020959 -0.098525718 0.93200004
-0.061245717 -0.098525718 0.93200004
-0.05966191 -0.098842867 0.93500006
-0.057695244 -0.098525718 0.93200004
-0.055920005 -0.098525718 0.93200004
-0.054144766 -0.098525718 0.93200004
-0.052369528 -0.098525718 0.93200004
-0.050594289 -0.098525718 0.93200004
-0.04881905 -0.098525718 0.93200004
-0.047043812 -0.098525718 0.93200004
-0.045268573 -0.098525718 0.93200004
-0.043493338 -0.098525718 0.93200004
-0.041628573 -0.098314293 0.93000007
-0.039942861 -0.098525718 0.93200004
-0.038167622 -0.098525718 0.93200004
-0.036314286 -0.098314293 0.93000007
-0.034617145 -0.098525718 0.93200004
-0.032771431 -0.098314293 0.93000007
-0.031000001 -0.098314293 0.93000007
-0.029228574 -0.098314293 0.93000007
-0.027516192 -0.098525718 0.93200004
-0.025685716 -0.098314293 0.93000007
-0.023914287 -0.098314293 0.93000007
-0.022142859 -0.098314293 0.93000007
-0.02037143 -0.098314293 0.93000007
-0.018600002 -0.098314293 0.93000007
-0.016828572 -0.098314293 0.93000007
-0.015057144 -0.098314293 0.93000007
-0.013285715 -0.098314293 0.93000007
-0.011514287 -0.098314293 0.93000007
-0.0097428579 -0.098314293 0.93000007
-0.0079714293 -0.098314293 0.93000007
-0.0062000002 -0.098314293 0.93000007
-0.0044285716 -0.098314293 0.93000007
-0.0026485715 -0.097997151 0.92700005
-0.00088285719 -0.097997151 0.92700005
0.00088285719 -0.097997151 0.92700005
0.0026485715 -0.097997151 0.92700005
0.004414286 -0.097997151 0.92700005
0.0061800005 -0.097997151 0.92700005
0.0079457145 -0.097997151 0.92700005
0.0097114295 -0.097997151 0.92700005
0.011477144 -0.097997151 0.92700005
0.013242858 -0.097997151 0.92700005
0.015008572 -0.097997151 0.92700005
0.016738096 -0.097785719 0.92500007
0.018500002 -0.097785719 0.92500007
0.020261906 -0.097785719 0.92500007
0.02202381 -0.097785719 0.92500007
0.023785716 -0.097785719 0.92500007
0.02554762 -0.097785719 0.92500007
0.027309526 -0.097785719 0.92500007
0.029134288 -0.097997151 0.92700005
0.030900002 -0.097997151 0.92700005
0.032665715 -0.097997151 0.92700005
0.034431431 -0.097997151 0.92700005
0.036197145 -0.097997151 0.92700005
0.037962861 -0.097997151 0.92700005
0.039728574 -0.097997151 0.92700005
0.041404765 -0.097785719 0.92500007
0.043166671 -0.097785719 0.92500007
0.044928573 -0.097785719 0.92500007
0.046690479 -0.097785719 0.92500007
0.048452385 -0.097785719 0.92500007
0.050214291 -0.097785719 0.92500007
0.051976193 -0.097785719 0.92500007
0.053738099 -0.097785719 0.92500007
0.055500004 -0.097785719 0.92500007
0.070971437 -0.097257152 0.92000002
0.072723813 -0.097257152 0.92000002
0.074476197 -0.097257152 0.92000002
0.076228574 -0.097257152 0.92000002
0.077980958 -0.097257152 0.92000002
0.079473339 -0.096940003 0.91700006
0.081220008 -0.096940003 0.91700006
0.08296667 -0.096940003 0.91700006
0.08471334 -0.096940003 0.91700006
0.086460009 -0.096940003 0.91700006
0.088206671 -0.096940003 0.91700006
0.090247624 -0.097257152 0.92000002
0.092000008 -0.097257152 0.92000002
0.093752384 -0.097257152 0.92000002
0.095504768 -0.097257152 0.92000002
0.097257152 -0.097257152 0.92000002
0.098686673 -0.096940003 0.91700006
0.10043334 -0.096940003 0.91700006
0.10218 -0.096940003 0.91700006
0.1037 -0.096728578 0.91500002
0.10544287 -0.096728578 0.91500002
0.10718572 -0.096728578 0.91500002
0.10916667 -0.096940003 0.91700006
0.11091334 -0.096940003 0.91700006
0.11302858 -0.097257152 0.92000002
0.11478096 -0.097257152 0.92000002
0.11653334 -0.097257152 0.92000002
0.11828572 -0.097257152 0.92000002
0.1200381 -0.097257152 0.92000002
0.12112858 -0.096728578 0.91500002
0.12260287 -0.096517146 0.91300005
0.12393335 -0.096200004 0.91000003
0.1249762 -0.095671438 0.90500003
0.12642001 -0.095460005 0.90300006
0.12743048 -0.094931431 0.89800006
0.12885334 -0.094720006 0.89600003
0.13056001 -0.094720006 0.89600003
0.13197143 -0.094508581 0.89400005
0.15803143 -0.097997151 0.92700005
0.15979715 -0.097997151 0.92700005
0.16121429 -0.097785719 0.92500007
0.16332859 -0.097997151 0.92700005
0.1647381 -0.097785719 0.92500007
0.16650002 -0.097785719 0.92500007
0.16862573 -0.097997151 0.92700005
0.17039144 -0.097997151 0.92700005
0.17215715 -0.097997151 0.92700005
0.17392287 -0.097997151 0.92700005
0.17530954 -0.097785719 0.92500007
0.17745429 -0.097997151 0.92700005
0.17922001 -0.097997151 0.92700005
0.18059525 -0.097785719 0.92500007
0.18235716 -0.097785719 0.92500007
0.18411906 -0.097785719 0.92500007
0.18588096 -0.097785719 0.92500007
0.18764287 -0.097785719 0.92500007
0.18940477 -0.097785719 0.92500007
0.19116668 -0.097785719 0.92500007
0.19292858 -0.097785719 0.92500007
0.1946905 -0.097785719 0.92500007
0.19645239 -0.097785719 0.92500007
0.19864286 -0.097997151 0.92700005
0.20040858 -0.097997151 0.92700005
0.20217431 -0.097997151 0.92700005
0.20394002 -0.097997151 0.92700005
0.20570573 -0.097997151 0.92700005
0.20747145 -0.097997151 0.92700005
0.20923716 -0.097997151 0.92700005
0.21054763 -0.097785719 0.92500007
0.21276858 -0.097997151 0.92700005
0.2145343 -0.097997151 0.92700005
0.21630001 -0.097997151 0.92700005
0.21806572 -0.097997151 0.92700005
0.21983144 -0.097997151 0.92700005
0.22111906 -0.097785719 0.92500007
0.22336288 -0.097997151 0.92700005
0.22512859 -0.097997151 0.92700005
0.2268943 -0.097997151 0.92700005
0.22866002 -0.097997151 0.92700005
0.23042573 -0.097997151 0.92700005
0.23219144 -0.097997151 0.92700005
0.23395716 -0.097997151 0.92700005
0.23572287 -0.097997151 0.92700005
0.23748858 -0.097997151 0.92700005
0.2392543 -0.097997151 0.92700005
0.24102001 -0.097997151 0.92700005
0.24278574 -0.097997151 0.92700005
0.24455145 -0.097997151 0.92700005
0.24631716 -0.097997151 0.92700005
0.24808288 -0.097997151 0.92700005
0.24984859 -0.097997151 0.92700005
0.2516143 -0.097997151 0.92700005
0.25283334 -0.097785719 0.92500007
0.25459525 -0.097785719 0.92500007
0.25635716 -0.097785719 0.92500007
0.25811908 -0.097785719 0.92500007
0.25988096 -0.097785719 0.92500007
0.26079431 -0.097468577 0.92200005
0.2625505 -0.097468577 0.92200005
0.26516667 -0.097785719 0.92500007
0.26606289 -0.097468577 0.92200005
0.26781908 -0.097468577 0.92200005
0.26957527 -0.097468577 0.92200005
0.27133146 -0.097468577 0.92200005
0.27308765 -0.097468577 0.92200005
0.27573812 -0.097785719 0.92500007
0.27660003 -0.097468577 0.92200005
0.27835619 -0.097468577 0.92200005
0.28102383 -0.097785719 0.92500007
0.28186858 -0.097468577 0.92200005
0.28454763 -0.097785719 0.92500007
0.28630954 -0.097785719 0.92500007
0.28807145 -0.097785719 0.92500007
0.28983337 -0.097785719 0.92500007
0.29159525 -0.097785719 0.92500007
0.29335716 -0.097785719 0.92500007
0.29511908 -0.097785719 0.92500007
0.29688096 -0.097785719 0.92500007
0.29864287 -0.097785719 0.92500007
0.30040479 -0.097785719 0.92500007
0.3021667 -0.097785719 0.92500007
0.30392858 -0.097785719 0.92500007
0.3056905 -0.097785719 0.92500007
0.30645525 -0.097468577 0.92200005
0.30821145 -0.097468577 0.92200005
0.31097621 -0.097785719 0.92500007
0.31172383 -0.097468577 0.92200005
0.31280002 -0.097257152 0.92000002
0.3145524 -0.097257152 0.92000002
0.31527334 -0.096940003 0.91700006
0.31632859 -0.096728578 0.91500002
0.31563812 -0.095988579 0.90800005
0.31631908 -0.095671438 0.90500003
0.31804287 -0.095671438 0.90500003
0.31835335 -0.09524858 0.90100002
0.31829336 -0.094720006 0.89600003
0.31928572 -0.094508581 0.89400005
0.31919336 -0.093980007 0.88900006
0.31908193 -0.093451433 0.88400006
0.3193143 -0.093028575 0.88000005
0.31916669 -0.092500009 0.87500006
0.32010001 -0.092288576 0.87300003
0.32102573 -0.092077151 0.87100005
0.32194382 -0.091865718 0.86900002
0.32099241 -0.091125719 0.86200005
0.32263431 -0.091125719 0.86200005
0.32277146 -0.090702862 0.85800004
0.32364956 -0.090491436 0.85600007
0.32452002 -0.090280004 0.85400003
0.32041812 -0.088694289 0.83900005
0.32124859 -0.088482864 0.83700001
0.32207146 -0.088271432 0.83500004
0.32211146 -0.087848574 0.83100003
0.32291526 -0.087637149 0.82900006
0.32371145 -0.087425724 0.82700002
0.32371336 -0.087002866 0.82300001
0.32449049 -0.086791433 0.82100004
0.32526001 -0.086580008 0.81900007
0.32682002 -0.086580008 0.81900007
0.32757813 -0.086368576 0.81700003
0.32832858 -0.086157151 0.81500006
0.32947621 -0.086051434 0.81400001
0.3310267 -0.086051434 0.81400001
0.33176002 -0.085840009 0.81200004
0.3333067 -0.085840009 0.81200004
0.33485335 -0.085840009 0.81200004
0.33640003 -0.085840009 0.81200004
0.33794668 -0.085840009 0.81200004
0.33949336 -0.085840009 0.81200004
0.34104002 -0.085840009 0.81200004
0.3425867 -0.085840009 0.81200004
0.34413335 -0.085840009 0.81200004
0.34568003 -0.085840009 0.81200004
0.34808192 -0.086051434 0.81400001
0.34963241 -0.086051434 0.81400001
0.35118288 -0.086051434 0.81400001
0.35186669 -0.085840009 0.81200004
0.35341334 -0.085840009 0.81200004
-0.16735715 -0.085642859 0.82500005
-0.16618763 -0.085850485 0.82700002
-0.1642143 -0.085642859 0.82500005
-0.16264287 -0.085642859 0.82500005
-0.16068096 -0.085435241 0.82300001
-0.15911335 -0.085435241 0.82300001
-0.15754573 -0.085435241 0.82300001
-0.1559781 -0.085435241 0.82300001
-0.15441048 -0.085435241 0.82300001
-0.15284286 -0.085435241 0.82300001
-0.15090764 -0.085227624 0.82100004
-0.14934382 -0.085227624 0.82100004
-0.14778002 -0.085227624 0.82100004
-0.1462162 -0.085227624 0.82100004
-0.1446524 -0.085227624 0.82100004
-0.14343715 -0.085435241 0.82300001
-0.14186953 -0.085435241 0.82300001
-0.14030191 -0.085435241 0.82300001
-0.1387343 -0.085435241 0.82300001
-0.13716668 -0.085435241 0.82300001
-0.13552287 -0.090625718 0.87300003
-0.12742001 -0.08626572 0.83100003
-0.12583715 -0.08626572 0.83100003
-0.13226667 -0.093013339 0.89600003
-0.13056001 -0.093013339 0.89600003
-0.12957239 -0.093532383 0.90100002
-0.12842382 -0.093947627 0.90500003
-0.1277381 -0.096023813 0.92500007
-0.12624858 -0.096231438 0.92700005
-0.12448286 -0.096231438 0.92700005
-0.1231143 -0.096542865 0.93000007
-0.12134287 -0.096542865 0.93000007
-0.11957144 -0.096542865 0.93000007
-0.11805334 -0.096750483 0.93200004
-0.1162781 -0.096750483 0.93200004
-0.11487143 -0.09706191 0.93500006
-0.11309049 -0.09706191 0.93500006
-0.11130953 -0.09706191 0.93500006
-0.10952858 -0.09706191 0.93500006
-0.10774763 -0.09706191 0.93500006
-0.10562667 -0.096750483 0.93200004
-0.10385144 -0.096750483 0.93200004
-0.1020762 -0.096750483 0.93200004
-0.10008572 -0.096542865 0.93000007
-0.098314293 -0.096542865 0.93000007
-0.096542865 -0.096542865 0.93000007
-0.094771437 -0.096542865 0.93000007
-0.09300001 -0.096542865 0.93000007
-0.091228575 -0.096542865 0.93000007
-0.089457147 -0.096542865 0.93000007
-0.087685719 -0.096542865 0.93000007
-0.085914291 -0.096542865 0.93000007
-0.084142864 -0.096542865 0.93000007
-0.082371436 -0.096542865 0.93000007
-0.080600008 -0.096542865 0.93000007
-0.078828573 -0.096542865 0.93000007
-0.077057146 -0.096542865 0.93000007
-0.075285718 -0.096542865 0.93000007
-0.07351429 -0.096542865 0.93000007
-0.071742862 -0.096542865 0.93000007
-0.069971435 -0.096542865 0.93000007
-0.068200007 -0.096542865 0.93000007
-0.066571429 -0.096750483 0.93200004
-0.064796194 -0.096750483 0.93200004
-0.063020959 -0.096750483 0.93200004
-0.061442859 -0.09706191 0.93500006
-0.05966191 -0.09706191 0.93500006
-0.057880957 -0.09706191 0.93500006
-0.056100003 -0.09706191 0.93500006
-0.054144766 -0.096750483 0.93200004
-0.052369528 -0.096750483 0.93200004
-0.050594289 -0.096750483 0.93200004
-0.04881905 -0.096750483 0.93200004
-0.047043812 -0.096750483 0.93200004
-0.045268573 -0.096750483 0.93200004
-0.043493338 -0.096750483 0.93200004
-0.041718099 -0.096750483 0.93200004
-0.039942861 -0.096750483 0.93200004
-0.038167622 -0.096750483 0.93200004
-0.036392383 -0.096750483 0.93200004
-0.034617145 -0.096750483 0.93200004
-0.032841906 -0.096750483 0.93200004
-0.031000001 -0.096542865 0.93000007
-0.02929143 -0.096750483 0.93200004
-0.027516192 -0.096750483 0.93200004
-0.025685716 -0.096542865 0.93000007
-0.023914287 -0.096542865 0.93000007
-0.022142859 -0.096542865 0.93000007
-0.02037143 -0.096542865 0.93000007
-0.018600002 -0.096542865 0.93000007
-0.016828572 -0.096542865 0.93000007
-0.015057144 -0.096542865 0.93000007
-0.013285715 -0.096542865 0.93000007
-0.011514287 -0.096542865 0.93000007
-0.0097428579 -0.096542865 0.93000007
-0.0079714293 -0.096542865 0.93000007
-0.0062000002 -0.096542865 0.93000007
-0.0044285716 -0.096542865 0.93000007
-0.0026485715 -0.096231438 0.92700005
-0.00088285719 -0.096231438 0.92700005
0.00088285719 -0.096231438 0.92700005
0.0026485715 -0.096231438 0.92700005
0.004414286 -0.096231438 0.92700005
0.0061800005 -0.096231438 0.92700005
0.0079457145 -0.096231438 0.92700005
0.0097114295 -0.096231438 0.92700005
0.011477144 -0.096231438 0.92700005
0.013242858 -0.096231438 0.92700005
0.015008572 -0.096231438 0.92700005
0.016738096 -0.096023813 0.92500007
0.018500002 -0.096023813 0.92500007
0.020261906 -0.096023813 0.92500007
0.02202381 -0.096023813 0.92500007
0.023837144 -0.096231438 0.92700005
0.025602859 -0.096231438 0.92700005
0.027368573 -0.096231438 0.92700005
0.029134288 -0.096231438 0.92700005
0.030900002 -0.096231438 0.92700005
0.032665715 -0.096231438 0.92700005
0.034431431 -0.096231438 0.92700005
0.036197145 -0.096231438 0.92700005
0.037962861 -0.096231438 0.92700005
0.039728574 -0.096231438 0.92700005
0.041404765 -0.096023813 0.92500007
0.043166671 -0.096023813 0.92500007
0.044928573 -0.096023813 0.92500007
0.046690479 -0.096023813 0.92500007
0.048452385 -0.096023813 0.92500007
0.050214291 -0.096023813 0.92500007
0.051976193 -0.096023813 0.92500007
0.053738099 -0.096023813 0.92500007
0.071125716 -0.095712386 0.92200005
0.072881907 -0.095712386 0.92200005
0.074638098 -0.095712386 0.92200005
0.076228574 -0.095504768 0.92000002
0.078150481 -0.095712386 0.92200005
0.079733342 -0.095504768 0.92000002
0.081485718 -0.095504768 0.92000002
0.08296667 -0.095193341 0.91700006
0.08471334 -0.095193341 0.91700006
0.086460009 -0.095193341 0.91700006
0.088495247 -0.095504768 0.92000002
0.090247624 -0.095504768 0.92000002
0.091700003 -0.095193341 0.91700006
0.093752384 -0.095504768 0.92000002
0.095193341 -0.095193341 0.91700006
0.096940003 -0.095193341 0.91700006
0.098686673 -0.095193341 0.91700006
0.10043334 -0.095193341 0.91700006
0.10218 -0.095193341 0.91700006
0.1037 -0.094985723 0.91500002
0.10544287 -0.094985723 0.91500002
0.10777143 -0.095504768 0.92000002
0.10916667 -0.095193341 0.91700006
0.11127619 -0.095504768 0.92000002
0.11302858 -0.095504768 0.92000002
0.11503048 -0.095712386 0.92200005
0.11653334 -0.095504768 0.92000002
0.11854286 -0.095712386 0.92200005
0.1200381 -0.095504768 0.92000002
0.12179048 -0.095504768 0.92000002
0.12287144 -0.094985723 0.91500002
0.12434191 -0.094778098 0.91300005
0.1249762 -0.093947627 0.90500003
0.12642001 -0.093740009 0.90300006
0.12743048 -0.093220957 0.89800006
0.12914096 -0.093220957 0.89800006
0.13056001 -0.093013339 0.89600003
0.13197143 -0.092805721 0.89400005
0.15803143 -0.096231438 0.92700005
0.15979715 -0.096231438 0.92700005
0.16121429 -0.096023813 0.92500007
0.16332859 -0.096231438 0.92700005
0.1650943 -0.096231438 0.92700005
0.16650002 -0.096023813 0.92500007
0.16862573 -0.096231438 0.92700005
0.17039144 -0.096231438 0.92700005
0.17215715 -0.096231438 0.92700005
0.17392287 -0.096231438 0.92700005
0.17568858 -0.096231438 0.92700005
0.17745429 -0.096231438 0.92700005
0.17883335 -0.096023813 0.92500007
0.18059525 -0.096023813 0.92500007
0.18235716 -0.096023813 0.92500007
0.18411906 -0.096023813 0.92500007
0.18588096 -0.096023813 0.92500007
0.18764287 -0.096023813 0.92500007
0.18940477 -0.096023813 0.92500007
0.19116668 -0.096023813 0.92500007
0.19292858 -0.096023813 0.92500007
0.1946905 -0.096023813 0.92500007
0.19645239 -0.096023813 0.92500007
0.19821429 -0.096023813 0.92500007
0.20040858 -0.096231438 0.92700005
0.20217431 -0.096231438 0.92700005
0.20394002 -0.096231438 0.92700005
0.20570573 -0.096231438 0.92700005
0.20702383 -0.096023813 0.92500007
0.20878573 -0.096023813 0.92500007
0.21054763 -0.096023813 0.92500007
0.21230954 -0.096023813 0.92500007
0.2145343 -0.096231438 0.92700005
0.21630001 -0.096231438 0.92700005
0.21806572 -0.096231438 0.92700005
0.21983144 -0.096231438 0.92700005
0.22159715 -0.096231438 0.92700005
0.22336288 -0.096231438 0.92700005
0.22512859 -0.096231438 0.92700005
0.2268943 -0.096231438 0.92700005
0.22866002 -0.096231438 0.92700005
0.23042573 -0.096231438 0.92700005
0.23219144 -0.096231438 0.92700005
0.23395716 -0.096231438 0.92700005
0.23572287 -0.096231438 0.92700005
0.23748858 -0.096231438 0.92700005
0.2392543 -0.096231438 0.92700005
0.24102001 -0.096231438 0.92700005
0.24278574 -0.096231438 0.92700005
0.24455145 -0.096231438 0.92700005
0.24631716 -0.096231438 0.92700005
0.24808288 -0.096231438 0.92700005
0.24984859 -0.096231438 0.92700005
0.2516143 -0.096231438 0.92700005
0.25283334 -0.096023813 0.92500007
0.25459525 -0.096023813 0.92500007
0.25635716 -0.096023813 0.92500007
0.25811908 -0.096023813 0.92500007
0.25988096 -0.096023813 0.92500007
0.26164287 -0.096023813 0.92500007
0.2625505 -0.095712386 0.92200005
0.26516667 -0.096023813 0.92500007
0.26692858 -0.096023813 0.92500007
0.2686905 -0.096023813 0.92500007
0.27045241 -0.096023813 0.92500007
0.27221429 -0.096023813 0.92500007
0.27397621 -0.096023813 0.92500007
0.27573812 -0.096023813 0.92500007
0.2775 -0.096023813 0.92500007
0.27926192 -0.096023813 0.92500007
0.28102383 -0.096023813 0.92500007
0.28278574 -0.096023813 0.92500007
0.28454763 -0.096023813 0.92500007
0.28630954 -0.096023813 0.92500007
0.28807145 -0.096023813 0.92500007
0.28983337 -0.096023813 0.92500007
0.29159525 -0.096023813 0.92500007
0.29335716 -0.096023813 0.92500007
0.29511908 -0.096023813 0.92500007
0.29688096 -0.096023813 0.92500007
0.29864287 -0.096023813 0.92500007
0.30040479 -0.096023813 0.92500007
0.3021667 -0.096023813 0.92500007
0.30392858 -0.096023813 0.92500007
0.3056905 -0.096023813 0.92500007
0.30745241 -0.096023813 0.92500007
0.30921429 -0.096023813 0.92500007
0.31097621 -0.096023813 0.92500007
0.31172383 -0.095712386 0.92200005
0.31280002 -0.095504768 0.92000002
0.3145524 -0.095504768 0.92000002
0.31527334 -0.095193341 0.91700006
0.31702003 -0.095193341 0.91700006
0.31633335 -0.094466671 0.91000003
0.31736764 -0.094259053 0.90800005
0.31804287 -0.093947627 0.90500003
0.31906003 -0.093740009 0.90300006
0.31829336 -0.093013339 0.89600003
0.3182143 -0.092494294 0.89100003
0.31919336 -0.092286676 0.88900006
0.31908193 -0.091767624 0.88400006
0.3193143 -0.091352388 0.88000005
0.32026097 -0.09114477 0.87800002
0.32010001 -0.090625718 0.87300003
0.32102573 -0.0904181 0.87100005
0.32194382 -0.090210482 0.86900002
0.32285431 -0.090002865 0.86700004
0.32263431 -0.089483812 0.86200005
0.32352382 -0.089276195 0.86000001
0.32289335 -0.088653341 0.85400003
0.32300001 -0.088238098 0.85000002
0.32041812 -0.087096199 0.83900005
0.32124859 -0.086888574 0.83700001
0.32130003 -0.086473338 0.83300006
0.32211146 -0.08626572 0.83100003
0.32291526 -0.086058103 0.82900006
0.32371145 -0.085850485 0.82700002
0.32371336 -0.085435241 0.82300001
0.32449049 -0.085227624 0.82100004
0.32526001 -0.085020006 0.81900007
0.32682002 -0.085020006 0.81900007
0.32757813 -0.084812388 0.81700003
0.32832858 -0.08460477 0.81500006
0.32947621 -0.084500961 0.81400001
0.3310267 -0.084500961 0.81400001
0.33176002 -0.084293336 0.81200004
0.3333067 -0.084293336 0.81200004
0.33485335 -0.084293336 0.81200004
0.33640003 -0.084293336 0.81200004
0.33794668 -0.084293336 0.81200004
0.33949336 -0.084293336 0.81200004
0.34104002 -0.084293336 0.81200004
0.3425867 -0.084293336 0.81200004
0.34498098 -0.084500961 0.81400001
0.34653145 -0.084500961 0.81400001
0.34808192 -0.084500961 0.81400001
0.34963241 -0.084500961 0.81400001
0.35118288 -0.084500961 0.81400001
0.35186669 -0.084293336 0.81200004
0.35428384 -0.084500961 0.81400001
-0.16776288 -0.084275246 0.82700002
-0.16618763 -0.084275246 0.82700002
-0.1642143 -0.084071435 0.82500005
-0.16303715 -0.084275246 0.82700002
-0.16068096 -0.083867624 0.82300001
-0.15911335 -0.083867624 0.82300001
-0.15754573 -0.083867624 0.82300001
-0.1559781 -0.083867624 0.82300001
-0.15441048 -0.083867624 0.82300001
-0.15284286 -0.083867624 0.82300001
-0.15090764 -0.083663814 0.82100004
-0.14934382 -0.083663814 0.82100004
-0.14778002 -0.083663814 0.82100004
-0.1462162 -0.083663814 0.82100004
-0.1446524 -0.083663814 0.82100004
-0.14343715 -0.083867624 0.82300001
-0.14186953 -0.083867624 0.82300001
-0.14030191 -0.083867624 0.82300001
-0.13907143 -0.084071435 0.82500005
-0.1375 -0.084071435 0.82500005
-0.13521239 -0.08875905 0.87100005
-0.12742001 -0.084682859 0.83100003
-0.12583715 -0.084682859 0.83100003
-0.12425429 -0.084682859 0.83100003
-0.12267144 -0.084682859 0.83100003
-0.12957239 -0.091816194 0.90100002
-0.12785619 -0.091816194 0.90100002
-0.1277381 -0.094261914 0.92500007
-0.12624858 -0.094465718 0.92700005
-0.12488572 -0.094771437 0.93000007
-0.1231143 -0.094771437 0.93000007
-0.12160382 -0.094975248 0.93200004
-0.11982858 -0.094975248 0.93200004
-0.11805334 -0.094975248 0.93200004
-0.1162781 -0.094975248 0.93200004
-0.11487143 -0.09528096 0.93500006
-0.11309049 -0.09528096 0.93500006
-0.11130953 -0.09528096 0.93500006
-0.10952858 -0.09528096 0.93500006
-0.10774763 -0.09528096 0.93500006
-0.10562667 -0.094975248 0.93200004
-0.10385144 -0.094975248 0.93200004
-0.1020762 -0.094975248 0.93200004
-0.10008572 -0.094771437 0.93000007
-0.098314293 -0.094771437 0.93000007
-0.096542865 -0.094771437 0.93000007
-0.094771437 -0.094771437 0.93000007
-0.09300001 -0.094771437 0.93000007
-0.091228575 -0.094771437 0.93000007
-0.089457147 -0.094771437 0.93000007
-0.087685719 -0.094771437 0.93000007
-0.085914291 -0.094771437 0.93000007
-0.084142864 -0.094771437 0.93000007
-0.082371436 -0.094771437 0.93000007
-0.080600008 -0.094771437 0.93000007
-0.078828573 -0.094771437 0.93000007
-0.077057146 -0.094771437 0.93000007
-0.075285718 -0.094771437 0.93000007
-0.07351429 -0.094771437 0.93000007
-0.071742862 -0.094771437 0.93000007
-0.069971435 -0.094771437 0.93000007
-0.068346672 -0.094975248 0.93200004
-0.066571429 -0.094975248 0.93200004
-0.064796194 -0.094975248 0.93200004
-0.063223816 -0.09528096 0.93500006
-0.061442859 -0.09528096 0.93500006
-0.05966191 -0.09528096 0.93500006
-0.057880957 -0.09528096 0.93500006
-0.056100003 -0.09528096 0.93500006
-0.054144766 -0.094975248 0.93200004
-0.052369528 -0.094975248 0.93200004
-0.050594289 -0.094975248 0.93200004
-0.04881905 -0.094975248 0.93200004
-0.047043812 -0.094975248 0.93200004
-0.045268573 -0.094975248 0.93200004
-0.043493338 -0.094975248 0.93200004
-0.041718099 -0.094975248 0.93200004
-0.039942861 -0.094975248 0.93200004
-0.038167622 -0.094975248 0.93200004
-0.036392383 -0.094975248 0.93200004
-0.034617145 -0.094975248 0.93200004
-0.032841906 -0.094975248 0.93200004
-0.031000001 -0.094771437 0.93000007
-0.029228574 -0.094771437 0.93000007
-0.027457144 -0.094771437 0.93000007
-0.025685716 -0.094771437 0.93000007
-0.023914287 -0.094771437 0.93000007
-0.022142859 -0.094771437 0.93000007
-0.02037143 -0.094771437 0.93000007
-0.018600002 -0.094771437 0.93000007
-0.016828572 -0.094771437 0.93000007
-0.015057144 -0.094771437 0.93000007
-0.013285715 -0.094771437 0.93000007
-0.011514287 -0.094771437 0.93000007
-0.0097428579 -0.094771437 0.93000007
-0.0079714293 -0.094771437 0.93000007
-0.0062000002 -0.094771437 0.93000007
-0.0044285716 -0.094771437 0.93000007
-0.0026485715 -0.094465718 0.92700005
-0.00088285719 -0.094465718 0.92700005
0.00088285719 -0.094465718 0.92700005
0.0026485715 -0.094465718 0.92700005
0.004414286 -0.094465718 0.92700005
0.0061800005 -0.094465718 0.92700005
0.0079457145 -0.094465718 0.92700005
0.0097114295 -0.094465718 0.92700005
0.011477144 -0.094465718 0.92700005
0.013242858 -0.094465718 0.92700005
0.015008572 -0.094465718 0.92700005
0.016738096 -0.094261914 0.92500007
0.018500002 -0.094261914 0.92500007
0.020261906 -0.094261914 0.92500007
0.02202381 -0.094261914 0.92500007
0.023837144 -0.094465718 0.92700005
0.025602859 -0.094465718 0.92700005
0.027368573 -0.094465718 0.92700005
0.029134288 -0.094465718 0.92700005
0.030900002 -0.094465718 0.92700005
0.032665715 -0.094465718 0.92700005
0.034431431 -0.094465718 0.92700005
0.036197145 -0.094465718 0.92700005
0.037880953 -0.094261914 0.92500007
0.039728574 -0.094465718 0.92700005
0.041404765 -0.094261914 0.92500007
0.043166671 -0.094261914 0.92500007
0.044928573 -0.094261914 0.92500007
0.046690479 -0.094261914 0.92500007
0.048452385 -0.094261914 0.92500007
0.050214291 -0.094261914 0.92500007
0.051976193 -0.094261914 0.92500007
0.053563815 -0.093956195 0.92200005
0.069219053 -0.093752384 0.92000002
0.071125716 -0.093956195 0.92200005
0.072723813 -0.093752384 0.92000002
0.074638098 -0.093956195 0.92200005
0.076228574 -0.093752384 0.92000002
0.078150481 -0.093956195 0.92200005
0.079733342 -0.093752384 0.92000002
0.081485718 -0.093752384 0.92000002
0.08296667 -0.093446672 0.91700006
0.08471334 -0.093446672 0.91700006
0.086460009 -0.093446672 0.91700006
0.088495247 -0.093752384 0.92000002
0.090247624 -0.093752384 0.92000002
0.091700003 -0.093446672 0.91700006
0.093752384 -0.093752384 0.92000002
0.095504768 -0.093752384 0.92000002
0.096940003 -0.093446672 0.91700006
0.098686673 -0.093446672 0.91700006
0.10043334 -0.093446672 0.91700006
0.10218 -0.093446672 0.91700006
0.10392667 -0.093446672 0.91700006
0.10544287 -0.093242861 0.91500002
0.10742 -0.093446672 0.91700006
0.10952382 -0.093752384 0.92000002
0.11127619 -0.093752384 0.92000002
0.11327429 -0.093956195 0.92200005
0.11503048 -0.093956195 0.92200005
0.11678667 -0.093956195 0.92200005
0.11854286 -0.093956195 0.92200005
0.12029906 -0.093956195 0.92200005
0.12179048 -0.093752384 0.92000002
0.12314001 -0.093446672 0.91700006
0.12434191 -0.093039051 0.91300005
0.1249762 -0.092223816 0.90500003
0.12670001 -0.092223816 0.90500003
0.12842382 -0.092223816 0.90500003
0.12885334 -0.091306672 0.89600003
0.13026857 -0.091102861 0.89400005
0.13197143 -0.091102861 0.89400005
0.13292667 -0.090593338 0.88900006
0.15803143 -0.094465718 0.92700005
0.15979715 -0.094465718 0.92700005
0.16121429 -0.094261914 0.92500007
0.16332859 -0.094465718 0.92700005
0.1647381 -0.094261914 0.92500007
0.16650002 -0.094261914 0.92500007
0.16862573 -0.094465718 0.92700005
0.17039144 -0.094465718 0.92700005
0.17215715 -0.094465718 0.92700005
0.17392287 -0.094465718 0.92700005
0.17568858 -0.094465718 0.92700005
0.17745429 -0.094465718 0.92700005
0.17922001 -0.094465718 0.92700005
0.18059525 -0.094261914 0.92500007
0.18235716 -0.094261914 0.92500007
0.18411906 -0.094261914 0.92500007
0.18588096 -0.094261914 0.92500007
0.18764287 -0.094261914 0.92500007
0.18940477 -0.094261914 0.92500007
0.19116668 -0.094261914 0.92500007
0.19292858 -0.094261914 0.92500007
0.1946905 -0.094261914 0.92500007
0.19645239 -0.094261914 0.92500007
0.19821429 -0.094261914 0.92500007
0.19997621 -0.094261914 0.92500007
0.2017381 -0.094261914 0.92500007
0.20350002 -0.094261914 0.92500007
0.20526192 -0.094261914 0.92500007
0.20702383 -0.094261914 0.92500007
0.20878573 -0.094261914 0.92500007
0.21054763 -0.094261914 0.92500007
0.21230954 -0.094261914 0.92500007
0.2145343 -0.094465718 0.92700005
0.21630001 -0.094465718 0.92700005
0.21759525 -0.094261914 0.92500007
0.21983144 -0.094465718 0.92700005
0.22159715 -0.094465718 0.92700005
0.22336288 -0.094465718 0.92700005
0.22512859 -0.094465718 0.92700005
0.22640477 -0.094261914 0.92500007
0.22866002 -0.094465718 0.92700005
0.23042573 -0.094465718 0.92700005
0.23219144 -0.094465718 0.92700005
0.23395716 -0.094465718 0.92700005
0.23572287 -0.094465718 0.92700005
0.23748858 -0.094465718 0.92700005
0.2392543 -0.094465718 0.92700005
0.24102001 -0.094465718 0.92700005
0.24278574 -0.094465718 0.92700005
0.24455145 -0.094465718 0.92700005
0.24631716 -0.094465718 0.92700005
0.24808288 -0.094465718 0.92700005
0.24984859 -0.094465718 0.92700005
0.2516143 -0.094465718 0.92700005
0.25338003 -0.094465718 0.92700005
0.25459525 -0.094261914 0.92500007
0.25635716 -0.094261914 0.92500007
0.25811908 -0.094261914 0.92500007
0.25988096 -0.094261914 0.92500007
0.26164287 -0.094261914 0.92500007
0.26340479 -0.094261914 0.92500007
0.26516667 -0.094261914 0.92500007
0.26692858 -0.094261914 0.92500007
0.2686905 -0.094261914 0.92500007
0.27045241 -0.094261914 0.92500007
0.27221429 -0.094261914 0.92500007
0.27397621 -0.094261914 0.92500007
0.27573812 -0.094261914 0.92500007
0.2775 -0.094261914 0.92500007
0.27926192 -0.094261914 0.92500007
0.28102383 -0.094261914 0.92500007
0.28278574 -0.094261914 0.92500007
0.28454763 -0.094261914 0.92500007
0.28630954 -0.094261914 0.92500007
0.28807145 -0.094261914 0.92500007
0.28983337 -0.094261914 0.92500007
0.29159525 -0.094261914 0.92500007
0.29335716 -0.094261914 0.92500007
0.29511908 -0.094261914 0.92500007
0.29688096 -0.094261914 0.92500007
0.29864287 -0.094261914 0.92500007
0.30040479 -0.094261914 0.92500007
0.3021667 -0.094261914 0.92500007
0.30392858 -0.094261914 0.92500007
0.3056905 -0.094261914 0.92500007
0.30745241 -0.094261914 0.92500007
0.30921429 -0.094261914 0.92500007
0.31097621 -0.094261914 0.92500007
0.31172383 -0.093956195 0.92200005
0.31280002 -0.093752384 0.92000002
0.3145524 -0.093752384 0.92000002
0.31630477 -0.093752384 0.92000002
0.31702003 -0.093446672 0.91700006
0.31807145 -0.093242861 0.91500002
0.31806669 -0.092733338 0.91000003
0.31804287 -0.092223816 0.90500003
0.31835335 -0.091816194 0.90100002
0.31829336 -0.091306672 0.89600003
0.31928572 -0.091102861 0.89400005
0.31991145 -0.090797149 0.89100003
0.31908193 -0.090083815 0.88400006
0.3193143 -0.089676194 0.88000005
0.31916669 -0.089166671 0.87500006
0.32010001 -0.08896286 0.87300003
0.32102573 -0.08875905 0.87100005
0.32194382 -0.088555247 0.86900002
0.32210955 -0.088147625 0.86500007
0.32263431 -0.087841913 0.86200005
0.32352382 -0.087638102 0.86000001
0.32213718 -0.08682286 0.85200006
0.32224002 -0.086415246 0.84800005
0.32041812 -0.085498102 0.83900005
0.32124859 -0.085294291 0.83700001
0.32207146 -0.085090481 0.83500004
0.32288668 -0.08488667 0.83300006
0.32291526 -0.084479056 0.82900006
0.32371145 -0.084275246 0.82700002
0.32371336 -0.083867624 0.82300001
0.32449049 -0.083663814 0.82100004
0.32526001 -0.083460003 0.81900007
0.32682002 -0.083460003 0.81900007
0.32757813 -0.083256193 0.81700003
0.32832858 -0.083052389 0.81500006
0.32947621 -0.08295048 0.81400001
0.3310267 -0.08295048 0.81400001
0.33257717 -0.08295048 0.81400001
0.3333067 -0.08274667 0.81200004
0.33485335 -0.08274667 0.81200004
0.33640003 -0.08274667 0.81200004
0.33794668 -0.08274667 0.81200004
0.33949336 -0.08274667 0.81200004
0.34104002 -0.08274667 0.81200004
0.3425867 -0.08274667 0.81200004
0.34413335 -0.08274667 0.81200004
0.34568003 -0.08274667 0.81200004
0.34808192 -0.08295048 0.81400001
0.34963241 -0.08295048 0.81400001
