# .PCD v0.7 - Point Cloud Data file format
VERSION 0.7
FIELDS x y z
SIZE 4 4 4
TYPE F F F
COUNT 1 1 1
WIDTH 1490
HEIGHT 1
VIEWPOINT 0 0 0 1 0 0 0
POINTS 1490
DATA ascii
-0.13474557 0.16268767 0.90352631
-0.12706514 0.16501594 0.90478581
0.20697665 0.16806918 0.90475005
0.21300142 0.16606395 0.90355557
0.20388003 0.17446858 0.90299988
0.20107563 0.18276718 0.90250003
0.19704403 0.20792802 0.904625
0.19598448 0.21478187 0.9052667
0.1980966 0.2238403 0.90471441
-0.14493902 0.15664594 0.91299999
-0.13479748 0.15633526 0.91357148
-0.12896492 0.1583809 0.91400003
0.21982151 0.15950502 0.91700006
0.22322713 0.15887935 0.91600001
-0.15134525 0.16187365 0.91000003
-0.14893031 0.16067825 0.91000003
-0.12553005 0.16246137 0.91042858
0.19974484 0.16853954 0.91700006
0.20573206 0.16554849 0.91415787
0.21534549 0.16320583 0.91431576
0.2240161 0.16419269 0.91352946
0.19923517 0.17451446 0.9158572
0.20155826 0.17408955 0.91200012
0.22894727 0.17034644 0.91700006
0.19936804 0.1841335 0.91666669
0.20184027 0.18483116 0.9158572
0.19967222 0.19466721 0.91666669
0.20201795 0.19396423 0.91527271
0.19671845 0.2037966 0.912
0.2002511 0.20213902 0.91100001
0.19523917 0.21188036 0.91300005
0.1961973 0.22654741 0.91409999
0.19474553 0.23387477 0.91459095
0.2000313 0.23001181 0.91000003
-0.14360754 0.15347676 0.92333341
-0.13451028 0.15313691 0.92450011
-0.12608719 0.15532282 0.92586374
0.20751195 0.15844643 0.92560005
0.21431004 0.1582308 0.92275
0.22211091 0.15738173 0.92400014
-0.12608275 0.16072261 0.92400002
0.20417209 0.16366282 0.92247063
0.2150473 0.16032898 0.92000002
0.19881901 0.17474446 0.92116678
0.1985672 0.18631266 0.92000002
0.19835049 0.1951618 0.92112505
0.19680072 0.22678535 0.92400008
0.19342691 0.23597547 0.92166674
-0.15194215 0.14774618 0.93599999
-0.14527622 0.1475368 0.93565005
-0.13523838 0.14763349 0.93481272
-0.12576501 0.14886467 0.93530017
0.22437616 0.14897639 0.93600005
-0.15240148 0.1521959 0.93500012
-0.14654762 0.15164271 0.93214297
-0.13986333 0.15077116 0.93000007
-0.12490018 0.15157115 0.93116683
0.20614311 0.15535504 0.93311131
0.21499991 0.1553904 0.93419057
0.22262979 0.15360346 0.93371451
0.20247972 0.16427675 0.93383336
0.2018047 0.17000547 0.93500006
0.19901323 0.18842918 0.93500006
0.1978796 0.19467732 0.93258345
0.19841881 0.20489351 0.93550014
0.19693056 0.21542861 0.93457156
0.19570196 0.22448914 0.93172741
0.19476992 0.23178181 0.93400002
-0.11879792 0.13852589 0.94650006
-0.14338796 0.14235154 0.94364291
-0.13464591 0.1431229 0.9434762
-0.12586667 0.1444741 0.94563162
-0.11992812 0.14061341 0.94800007
0.20662645 0.14883912 0.94537503
0.21492547 0.14659944 0.94476181
0.22336394 0.14593478 0.94380003
0.19814132 0.15689158 0.94800007
0.202952 0.1544189 0.94323814
0.21598038 0.15115754 0.94000012
0.22159317 0.15054013 0.94000006
0.19834526 0.1631075 0.94385725
0.20120949 0.16431148 0.9417274
0.20109779 0.17369047 0.94333339
0.20114172 0.18765134 0.94500005
0.19785869 0.19371343 0.94280005
0.19605677 0.20492302 0.94166678
0.19621518 0.21576595 0.94225007
0.19452064 0.22552328 0.94300002
0.19420382 0.23321189 0.94100004
-0.14390433 0.1372128 0.95687515
-0.13547824 0.1380562 0.95537508
-0.12445667 0.13921675 0.95380002
0.22453617 0.13828245 0.95450008
-0.13152614 0.14091007 0.95000005
-0.12490821 0.14091007 0.95000005
0.20564479 0.14641917 0.95435292
0.21592145 0.14275706 0.95554554
0.22204633 0.14192608 0.9526667
0.19772594 0.15421164 0.95120013
0.20126054 0.1502697 0.95000005
0.19845228 0.16427723 0.95166671
0.20101924 0.17610715 0.95528579
0.19919522 0.18561566 0.95370007
0.20200741 0.18282183 0.9505555
0.19883005 0.19558175 0.95650005
0.19810249 0.20144588 0.95300007
0.19430888 0.21646859 0.95300007
0.1935105 0.2244464 0.95322227
0.19461879 0.23608115 0.9564001
0.19580504 0.24167238 0.95800006
-0.14421874 0.13274404 0.96322232
-0.13427266 0.13348591 0.96547377
-0.12605508 0.13601676 0.9660455
0.20914306 0.13990952 0.96900004
0.21563679 0.13772465 0.96624994
0.22245382 0.13654092 0.96363652
0.2068534 0.14267537 0.96333337
0.21347336 0.14127927 0.96100008
0.19908807 0.16820018 0.96700001
0.20049304 0.16871606 0.96450007
0.199191 0.17496154 0.96750003
0.20081249 0.17505008 0.96450007
0.19826221 0.18455108 0.96554554
0.19875321 0.19518721 0.96383345
0.19652098 0.20322664 0.96657145
0.19211456 0.22775376 0.96100008
-0.12065611 0.23919655 0.96900004
0.1929777 0.23520891 0.96328574
0.19303869 0.24481797 0.96428585
-0.14368391 0.12921557 0.97475004
-0.13479434 0.12906313 0.97360003
-0.12546191 0.1294343 0.97640008
-0.11970767 0.12951383 0.97700006
-0.14231049 0.1307663 0.97200006
-0.13650662 0.1307663 0.97200006
-0.12404814 0.1320706 0.97377789
-0.11970767 0.1333641 0.97700006
0.20867568 0.13747892 0.97433347
0.21456967 0.13359658 0.97458827
0.2224218 0.1326768 0.97480005
0.20597766 0.14306831 0.97533345
0.19889644 0.16679443 0.97550005
0.2005292 0.1655813 0.97400004
0.19854985 0.1751426 0.97380012
0.19792415 0.1840999 0.97550005
0.19772027 0.19350186 0.97450006
0.1966076 0.20657605 0.97500008
0.19739518 0.21291886 0.97357154
0.20011745 0.21312323 0.97200006
0.19570206 0.22577034 0.97700006
-0.12134095 0.23767145 0.97450006
-0.11812772 0.2399371 0.97200006
0.19239053 0.23627126 0.97533339
-0.11855458 0.24272326 0.97550005
0.18947943 0.24790931 0.97700006
0.19064027 0.24497414 0.97300005
-0.01178387 0.25464725 0.97700006
-0.0088670105 0.25464725 0.97700006
0.076694191 0.25657237 0.97700012
0.083694659 0.25734243 0.97700006
0.18762162 0.25554234 0.97633344
0.19057497 0.25351781 0.97266674
0.086976796 0.26143754 0.97600007
0.0903062 0.26234779 0.97700006
-0.14280096 0.12580568 0.98316669
-0.13508381 0.12585507 0.9835555
-0.12566312 0.12738378 0.98490906
-0.11908898 0.12707841 0.98800004
0.20718712 0.12844057 0.98724997
0.21514206 0.1288234 0.98500007
0.22191894 0.12854114 0.9843334
0.20580326 0.13461182 0.98379159
0.21395788 0.13069256 0.98225003
0.22551568 0.13107589 0.98150003
0.20311059 0.14534393 0.98376465
0.19849539 0.15822729 0.98800004
0.20268872 0.15487638 0.98449993
0.19779585 0.16506736 0.98415381
0.20042564 0.16130045 0.98300004
0.19728518 0.17525838 0.98525
0.19760163 0.18475379 0.98411113
0.19799784 0.19742054 0.98500007
0.19515659 0.20310527 0.98473334
0.18907045 0.21985541 0.98500007
0.1949324 0.21671182 0.98317641
0.18907045 0.22567809 0.98500007
0.19433627 0.2246505 0.98281819
-0.1223067 0.23417914 0.9822858
-0.11908898 0.23707287 0.98800004
0.18907045 0.23538256 0.98500007
0.19198386 0.23490329 0.98414296
-0.11712251 0.24680689 0.98800004
-0.020765644 0.2497271 0.98800004
-0.014834767 0.24845995 0.98587501
-0.0065943296 0.24888277 0.98620003
0.18910885 0.24513288 0.98520005
0.19020668 0.24306107 0.98075002
-0.081726111 0.25556752 0.98800004
-0.057145275 0.25556752 0.98800004
-0.043801393 0.25528944 0.98800004
-0.022526048 0.25399855 0.9867273
-0.015103314 0.25270936 0.98194432
-0.0047945702 0.25279766 0.98163152
0.0037335732 0.25477996 0.98553842
0.014630756 0.25946113 0.98800004
0.025507614 0.25740591 0.98690909
0.034811348 0.2569859 0.98722225
0.044489224 0.25651807 0.98512495
0.052386921 0.25829306 0.98800004
0.067426652 0.25804815 0.98725003
0.07520885 0.25529695 0.98462492
0.085639931 0.2542606 0.98331821
0.094121918 0.25553152 0.9839524
0.1026056 0.25836846 0.98680001
0.13851817 0.25946113 0.98800004
0.14835049 0.25946113 0.98800004
0.15031697 0.25946113 0.98800004
0.16998163 0.25848773 0.98800004
0.17534338 0.25770223 0.98500013
0.18507634 0.25568306 0.98331237
0.088632956 0.26122227 0.98000002
0.094718374 0.26031244 0.98240006
0.10084815 0.26061419 0.98500007
0.11885349 0.26140794 0.98800004
0.12081996 0.26140794 0.98800004
0.17614523 0.26034957 0.98400009
0.18086049 0.26008499 0.98300004
-0.11818942 0.11743105 0.99700004
-0.14355481 0.12141214 0.99400008
-0.13453741 0.12120034 0.99261552
-0.12547453 0.12341689 0.99381256
-0.11981219 0.12589152 0.99400002
0.20626448 0.12642193 0.99400014
0.21545894 0.12517974 0.99460024
0.2212435 0.12366486 0.9945001
0.20220937 0.13416359 0.99314296
0.20133458 0.14608166 0.99475002
0.20069005 0.15429161 0.99400002
0.19772243 0.1748572 0.99400002
0.19659124 0.18420814 0.99614292
0.1973816 0.19452478 0.99442869
0.19370738 0.205193 0.99625003
0.19386059 0.21413839 0.9945001
-0.12142302 0.23876908 0.99100006
0.190798 0.23557463 0.99400002
-0.1217906 0.24145052 0.99400002
-0.11387622 0.24781311 0.99400014
-0.10645097 0.24867895 0.99550009
-0.098345622 0.24807286 0.99700004
-0.082346499 0.24867895 0.99550003
-0.057579074 0.24867895 0.99550003
-0.044700008 0.24867897 0.99550009
-0.031820945 0.24867895 0.99550003
-0.024852151 0.24830453 0.99400008
-0.015387467 0.24715789 0.9933334
-0.0046170852 0.2479461 0.99300003
0.0039900816 0.24841921 0.99614298
0.017713912 0.24867895 0.99550003
0.024648791 0.24867892 0.99550009
0.031237079 0.24888098 0.99500006
0.076087549 0.24843012 0.99450004
0.084505282 0.24770933 0.99456257
0.092154853 0.24807286 0.99700004
0.18652661 0.24769726 0.99550021
-0.11353327 0.25146177 0.99100012
-0.10431775 0.25159457 0.99250007
-0.095927268 0.25278357 0.99381262
-0.083690204 0.25324926 0.99420023
-0.075020589 0.25174293 0.99538481
-0.063951336 0.25294936 0.99372727
-0.053903166 0.25294414 0.99300003
-0.045041572 0.25223279 0.99212509
-0.034968313 0.25330514 0.99308693
-0.026951948 0.25290447 0.99130011
-0.0011043196 0.25048539 0.99100006
0.0061439876 0.25226206 0.99340022
0.014480541 0.25408724 0.99228561
0.023989476 0.25319749 0.99100006
0.034584779 0.25188604 0.99268758
0.044875834 0.25249097 0.9936251
0.054496579 0.25357458 0.99377769
0.064179584 0.25482878 0.99399996
0.074255981 0.25177118 0.99300015
0.08502546 0.25081086 0.99100012
0.09517093 0.25254548 0.99400008
0.10536204 0.25719416 0.99430001
0.1157188 0.25776589 0.99600005
0.12552854 0.25617406 0.99414998
0.13531931 0.256331 0.99415797
0.14513038 0.25739971 0.9956001
0.15517674 0.25821224 0.9952001
0.16612116 0.25630736 0.99526328
0.17525886 0.2540898 0.99457145
0.18379518 0.25283611 0.99300003
0.013688965 0.26024896 0.99100006
0.057082597 0.26122531 0.99100006
0.061027471 0.26122531 0.99100006
0.10853149 0.26064289 0.99250007
0.11582889 0.26109964 0.99300003
0.12480297 0.2605744 0.99100012
0.13400766 0.26024896 0.99100006
0.14386986 0.26122528 0.99100012
0.15594316 0.26064289 0.99250007
0.16487582 0.26072165 0.99280006
-0.14479396 0.11670584 1.004889
-0.13503934 0.11629953 1.0042502
-0.1246971 0.11682992 1.0042943
-0.11919706 0.11446719 1.0055001
0.20886672 0.11905771 1.0080001
0.21613483 0.11649678 1.0072633
0.22113352 0.11749998 1.006
-0.14884552 0.12110231 1.003
-0.1222012 0.12160071 1.0006001
-0.11754988 0.12074009 1
0.20437013 0.12456249 1.0043335
0.21429741 0.12167376 1.0012001
0.20180443 0.13392197 1.0028334
0.19853914 0.14697391 1.0065
0.20124094 0.1451955 1.0033333
0.19797735 0.15520619 1.0053573
0.20051083 0.15470046 1.003
0.19857147 0.16253959 1.0066667
0.20111056 0.16309226 1.006
0.19681208 0.18759201 1.0045
0.19582553 0.19485658 1.0040001
0.19499336 0.20061402 1.0020001
0.19493522 0.21138078 1
-0.12119835 0.23532572 1.0055001
-0.1180176 0.23828344 1.0068333
-0.014717554 0.23795716 1.0077778
-0.0084796008 0.23823053 1.0080001
0.03699594 0.2388926 1.0080001
0.043416012 0.23849535 1.008
0.075838558 0.23794901 1.0055456
0.084240623 0.2380701 1.0045387
0.091165327 0.2388926 1.008
0.18947275 0.2388926 1.008
0.19311357 0.23873201 1.0040001
-0.1205354 0.24487843 1
-0.1147498 0.24386494 1.0032275
-0.10471976 0.24468271 1.0040801
-0.095206782 0.24502575 1.0042225
-0.085324779 0.24807866 1.0055716
-0.075130858 0.24807826 1.0050001
-0.065013066 0.24786074 1.005125
-0.054803785 0.24678442 1.0051113
-0.045367423 0.2464755 1.0051177
-0.035715178 0.24822764 1.0048001
-0.024671791 0.24457809 1.0050455
-0.014926674 0.24340236 1.0034784
-0.0053692656 0.24399628 1.0030872
0.0046732081 0.24536788 1.0054212
0.014288262 0.24679695 1.0045295
0.02525221 0.24686515 1.005182
0.035550833 0.24636684 1.0049525
0.044552069 0.24593736 1.0046802
0.054500926 0.24745212 1.004353
0.065355398 0.24755111 1.0063751
0.074330188 0.24465527 1.0039601
0.085181423 0.24359035 1.0028237
0.093817241 0.24577443 1.0060589
0.10320298 0.24882367 1.0080001
0.1346346 0.24882367 1.0080001
0.16589902 0.24882366 1.008
0.17520857 0.24787423 1.0060589
0.18554281 0.2451072 1.0050001
0.19202498 0.24116477 1.003
-0.091675311 0.25276023 1
-0.087893657 0.25276023 1
-0.070776634 0.251775 1
-0.068786278 0.25078976 1
0.042673372 0.25078976 1
0.065062366 0.25108635 1.0025001
0.097433701 0.2520625 1.0017143
0.10484767 0.25268862 1.0027144
0.1143664 0.25290546 1.0027275
0.12444916 0.25187954 1.0033752
0.13495724 0.25192696 1.0035627
0.14499694 0.25247446 1.0041113
0.15481162 0.25381345 1.0038801
0.16376238 0.25272071 1.0031581
0.17403655 0.25078976 1
-0.14181428 0.10876503 1.0170001
-0.13574171 0.10876503 1.0170001
-0.12764499 0.10876503 1.0170001
-0.15003271 0.11409973 1.011
-0.14501452 0.11147413 1.0125
-0.13473429 0.11141057 1.0129092
-0.12582339 0.11237709 1.0134546
0.20711151 0.11664125 1.0158001
0.21398853 0.11301916 1.0132501
0.19926123 0.12613258 1.0170001
0.20212378 0.12320372 1.0129092
0.19911426 0.13371347 1.0162501
0.20125611 0.13663189 1.0123334
0.19808564 0.14497766 1.011
0.20211014 0.14198947 1.011
0.19847751 0.16555715 1.013
0.20039475 0.16714013 1.0125
0.19406115 0.19976109 1.011
0.19521284 0.20395254 1.0170001
0.19521284 0.21497424 1.0170001
-0.12130909 0.22654596 1.0120001
-0.11885151 0.22845224 1.0128001
0.19542947 0.22266263 1.0155001
-0.12186129 0.23263115 1.011
-0.11471155 0.23527548 1.0139999
-0.10524236 0.23729706 1.014158
-0.0969439 0.23919509 1.0135001
-0.086149141 0.23902161 1.0170001
-0.055786338 0.23902161 1.0170001
-0.045665402 0.23902161 1.0170001
-0.024886036 0.23904528 1.0133333
-0.014921422 0.23387384 1.0140001
-0.0051657744 0.23459494 1.014125
0.0037555664 0.23706715 1.0165001
0.014745648 0.23804617 1.0152858
0.025540212 0.2373962 1.0152001
0.035338633 0.23676082 1.0142
0.045605626 0.23674996 1.014643
0.054052822 0.23839225 1.0143334
0.066568889 0.2386796 1.0136667
0.075493984 0.23550816 1.0131
0.086054534 0.23549084 1.01475
0.094458476 0.23794898 1.0140001
0.10325693 0.23844907 1.0170002
0.11829373 0.23902161 1.0170001
0.1243663 0.23902161 1.0170001
0.13516197 0.23902163 1.0170001
0.14157188 0.23902161 1.0170001
0.18821578 0.23798887 1.0147501
0.19146465 0.23488966 1.0140002
-0.11180007 0.24159572 1.011
-0.1087817 0.24159572 1.011
-0.091948472 0.24151106 1.0140001
-0.085325159 0.24312709 1.01325
-0.07589557 0.24375166 1.0136471
-0.065538868 0.24350224 1.01325
-0.055512071 0.24183273 1.012
-0.045206528 0.24215552 1.0128
-0.035162203 0.24468672 1.01475
-0.028838441 0.24195269 1.0125
-0.0021358933 0.24095514 1.0125
0.0052887583 0.24138948 1.0131818
0.015256948 0.24237981 1.01325
0.024881111 0.24303693 1.0135263
0.033549208 0.24241839 1.0116668
0.046794008 0.24213754 1.0116001
0.056053888 0.24295023 1.0124999
0.064387694 0.24324778 1.0117999
0.097946607 0.24421184 1.0120909
0.10575521 0.24494669 1.0139999
0.11502989 0.24566308 1.0153334
0.12477809 0.24541873 1.0150716
0.13475454 0.24529588 1.0149232
0.14371802 0.24630685 1.0160625
0.15477619 0.24896328 1.0137273
0.16542639 0.24615125 1.0133684
0.17429422 0.24326201 1.0138125
0.18358693 0.24245299 1.0136667
0.119963 0.25030476 1.0140001
0.14619982 0.25030476 1.0140002
0.15023625 0.25030476 1.0140001
-0.14300705 0.10620539 1.0237501
-0.1351393 0.10589958 1.0242
-0.12540804 0.1069916 1.0247144
-0.11856408 0.10770588 1.026
0.20715091 0.10972755 1.026
0.21443427 0.10927838 1.0218
0.22015059 0.10908587 1.0200001
-0.12210886 0.1112591 1.0215001
-0.11923546 0.11142249 1.023
0.20405753 0.11453337 1.0223686
0.21304503 0.11109573 1.0200001
0.19821665 0.12633407 1.0233749
0.2004368 0.12150134 1.023
0.19869158 0.13278395 1.0245
0.19810976 0.16661298 1.0215001
0.19984901 0.17340136 1.0200002
0.20187916 0.17239642 1.0200001
0.19932909 0.18369615 1.0236
0.19898249 0.19261649 1.026
0.19538705 0.20689975 1.0250001
0.1939892 0.21535906 1.0242858
-0.1166332 0.22822145 1.024
-0.10631148 0.22900675 1.026
-0.013053834 0.22871841 1.0221429
-0.0059346217 0.22750115 1.0235295
0.0019198282 0.22900675 1.026
0.039698679 0.22900675 1.026
0.043782882 0.22900675 1.026
0.07849858 0.22900675 1.026
0.084624879 0.22900675 1.026
0.19255556 0.22473538 1.0236429
-0.11318038 0.23147242 1.0235001
-0.10421976 0.23286821 1.023
-0.094871402 0.23555949 1.0237502
-0.085564382 0.23789163 1.0238572
-0.074395806 0.23814796 1.0247501
-0.064312652 0.23726113 1.0238334
-0.054668158 0.23724979 1.0244999
-0.045205571 0.23829255 1.0232728
-0.036327854 0.23713712 1.02475
-0.024758585 0.23553453 1.0238824
-0.018639272 0.23222768 1.0224
-0.0011383072 0.23102009 1.0215001
0.0055671153 0.23339196 1.0228237
0.015473515 0.23484032 1.0231581
0.025122875 0.23370831 1.023316
0.035267726 0.23270184 1.023375
0.045936383 0.23257369 1.0228126
0.055280305 0.23489363 1.0231767
0.065032087 0.23625246 1.023
0.07488887 0.23319635 1.0239232
0.08423201 0.23222095 1.0230002
0.094861604 0.23400423 1.0235624
0.1049748 0.23534498 1.0228126
0.1143049 0.23782571 1.0231875
0.12524675 0.23768483 1.0242
0.13527729 0.23819993 1.02425
0.14533097 0.23840547 1.0221001
0.15156969 0.23942092 1.023
0.16703215 0.23681305 1.022625
0.17471762 0.23616791 1.0228573
0.18516108 0.23619632 1.0230001
0.19238429 0.23147242 1.0235
-0.080549009 0.24043179 1.023
-0.072298333 0.24108416 1.0215
-0.066845208 0.24130164 1.0210001
-0.037753358 0.24120268 1.0220001
0.11661252 0.24374641 1.0200001
0.13386887 0.24374641 1.0200001
0.14666249 0.24337877 1.0203335
0.1550637 0.24493183 1.0221668
0.16391017 0.24305974 1.0227501
0.17853235 0.24173656 1.0200001
0.18230405 0.24095368 1.0218
-0.14137071 0.09854871 1.036
-0.13526419 0.098605789 1.0366001
-0.126085 0.098691396 1.0375
-0.11696438 0.098834082 1.039
-0.14389372 0.10189675 1.0337501
-0.13467759 0.10122621 1.0321001
-0.12455969 0.10236958 1.0334002
-0.11817167 0.10211523 1.036
0.20533793 0.10685755 1.0360001
0.21498765 0.10604762 1.0342355
0.22134569 0.10584216 1.0375
0.19717966 0.11461475 1.0349287
0.20126218 0.11237331 1.0317144
0.19705185 0.12396497 1.0337501
0.19770817 0.13383359 1.0300001
0.20150371 0.14182733 1.039
0.20072794 0.15147445 1.0350001
0.19914781 0.16717537 1.0375
0.20150371 0.1663949 1.039
0.19859116 0.17473429 1.0338572
0.2018083 0.17916051 1.0300001
0.19766369 0.18488608 1.0348002
0.2018083 0.18119007 1.0300001
0.19742966 0.19530658 1.0373636
0.20034006 0.19393064 1.033
-0.12340349 0.2070421 1.0375001
0.19539234 0.20433471 1.03675
-0.12432668 0.21248533 1.0378751
0.19292811 0.21511963 1.0343637
-0.11457651 0.22555451 1.036875
-0.10470244 0.22761481 1.0361578
-0.095325038 0.22900295 1.0368181
-0.063167632 0.22770321 1.0385001
-0.054830793 0.22741719 1.0372001
-0.044350795 0.22820674 1.0361667
-0.035115253 0.22888173 1.0376668
-0.024252865 0.22825556 1.0376364
-0.015559578 0.22607873 1.0339001
-0.0047829696 0.22309536 1.033353
0.0045665149 0.22719669 1.0346667
0.015323794 0.22892648 1.0348002
0.025379436 0.22878326 1.0360001
0.03522088 0.22815208 1.035647
0.044686556 0.22771147 1.0358235
0.054512035 0.22813649 1.0358499
0.064543873 0.22875306 1.0373638
0.075804569 0.22689164 1.0357143
0.085205436 0.22508548 1.0351249
0.094404235 0.22775048 1.0352501
0.10224092 0.22917867 1.039
0.13326055 0.22986111 1.039
0.16906738 0.22865286 1.0354
0.17505297 0.22682126 1.0372353
0.18545456 0.22791909 1.0364002
0.19076955 0.22455317 1.0350001
-0.093627244 0.23147337 1.0325001
-0.084894337 0.23352802 1.0328419
-0.075611949 0.2338202 1.0334501
-0.064888142 0.23260076 1.0330002
-0.054256156 0.23324203 1.0328333
-0.045145448 0.23400655 1.0315001
-0.03476784 0.23471701 1.0328234
-0.027338549 0.23305404 1.0320001
0.009102528 0.23192915 1.0300001
0.014227682 0.23192915 1.0300001
0.027596192 0.23124917 1.0315001
0.057620652 0.23260568 1.0300001
0.064801551 0.23226544 1.0308571
0.071168303 0.23209655 1.03075
0.097779684 0.23138519 1.0312002
0.10560467 0.23229277 1.0332729
0.11537517 0.23344557 1.0339375
0.1247109 0.23388305 1.0348947
0.13472316 0.2339208 1.0343503
0.14503749 0.23476963 1.0345001
0.15526806 0.23641059 1.0348333
0.16419315 0.23411798 1.0338825
0.17584115 0.2313247 1.0313334
0.18458089 0.23229599 1.0316364
0.15752698 0.24126513 1.0300001
0.16131958 0.24156958 1.0300001
-0.14165972 0.096383058 1.0457501
-0.13528326 0.096835546 1.0458573
-0.12463316 0.097390316 1.0455002
-0.11891188 0.097936951 1.0440001
0.21680743 0.099690199 1.0480001
0.20436963 0.10426807 1.0450001
0.21416287 0.10201544 1.04275
0.22213367 0.10185707 1.0420001
0.19879246 0.14800481 1.0465001
0.20203078 0.14689612 1.0434999
0.19850753 0.15500107 1.0450001
0.20085178 0.15562926 1.0432858
0.19850752 0.16580701 1.0450001
0.2010868 0.16376181 1.0440001
0.19693094 0.17611258 1.0440001
0.19586369 0.18466982 1.0420001
-0.12214933 0.19261661 1.0480001
0.19485883 0.19610386 1.0445715
-0.11884865 0.20883752 1.0465001
0.18864796 0.20810434 1.0480001
0.19222078 0.2048814 1.0447501
-0.14196527 0.21946202 1.0480001
-0.13568187 0.21680592 1.0459232
-0.12498561 0.21697569 1.0426667
-0.11758099 0.21585467 1.0459232
-0.1049987 0.21854423 1.0480002
-0.097118676 0.21946202 1.0480001
-0.084081873 0.21946202 1.0480001
-0.076259799 0.21946202 1.0480001
-0.051229145 0.21946202 1.0480001
-0.045492955 0.21946202 1.0480001
-0.03662793 0.21946202 1.0480001
-0.014085868 0.21879773 1.0468
-0.0053396127 0.21946202 1.0480002
0.0030039381 0.21946202 1.0480001
0.055151131 0.21946202 1.0480001
0.075829975 0.21895944 1.0456002
0.084171712 0.21795833 1.04575
0.091524482 0.21914791 1.0465001
0.17717557 0.21946202 1.0480001
0.18697637 0.21587513 1.0460911
0.19095182 0.21466325 1.0434999
-0.14175667 0.22317909 1.0480002
-0.13652515 0.22234134 1.0462859
-0.1240445 0.22361791 1.0463638
-0.11459016 0.22070667 1.0425
-0.10481921 0.22271058 1.0445714
-0.095069453 0.22491604 1.0457059
-0.084477663 0.22531766 1.0464401
-0.074774161 0.22487237 1.0452858
-0.065860547 0.22424851 1.0450001
-0.055242334 0.22294813 1.0450002
-0.044728097 0.22328612 1.0453751
-0.034543477 0.22504656 1.0446843
-0.025146233 0.22359177 1.0443078
-0.016640604 0.22198261 1.0430909
-0.0053097107 0.2203856 1.0426
0.006040805 0.22318886 1.0442002
0.015097694 0.22437085 1.0442941
0.025590472 0.22403345 1.0440625
0.03449738 0.22284693 1.0452145
0.044882514 0.22304964 1.0447859
0.054951955 0.22277823 1.0442001
0.065383159 0.22394459 1.0448501
0.074399807 0.22224657 1.0425
0.084907591 0.22025876 1.0420001
0.094889611 0.22286242 1.0438462
0.10470275 0.22695987 1.0458573
0.11583731 0.22811483 1.0463638
0.12538667 0.22716697 1.0447859
0.13504001 0.22701947 1.0447859
0.14435531 0.2274331 1.0458183
0.15944552 0.22978717 1.0480001
0.16617104 0.22700684 1.0455002
0.17489788 0.22216909 1.04375
0.18537425 0.22306544 1.0427059
-0.085155956 0.23052481 1.0420001
-0.075823203 0.23052481 1.0420001
-0.066490442 0.23052481 1.0420001
0.10787755 0.23085666 1.0435001
0.1149798 0.23052481 1.0420001
0.12534954 0.23052481 1.0420001
0.13883018 0.23052481 1.0420001
0.14575951 0.23106821 1.0426
0.15462723 0.23219344 1.0436364
0.16318135 0.23143046 1.0430001
-0.14186122 0.092036046 1.0550001
-0.1348895 0.093301959 1.0552002
-0.12539041 0.093837932 1.0552145
-0.11876557 0.095156051 1.0550001
0.20813666 0.097305857 1.0580001
0.21589859 0.095699415 1.0571669
0.2217201 0.097374611 1.0565001
0.19983722 0.10836235 1.052
0.20443709 0.1014616 1.054143
0.21135339 0.10007069 1.052
0.2004071 0.1107502 1.0550001
0.20116909 0.14588249 1.0535001
0.19830489 0.16687845 1.0550002
0.20193107 0.164331 1.052
0.19732603 0.17489588 1.0560001
-0.12661183 0.18600889 1.0574001
0.19514106 0.18506341 1.0535001
-0.12311617 0.19158719 1.0537144
0.19470589 0.19360282 1.0550001
-0.11788154 0.20875132 1.0565001
0.1883301 0.2082554 1.0540001
0.19182584 0.20202285 1.0540001
-0.1414602 0.21822675 1.052
-0.13936634 0.21200801 1.052
-0.11365751 0.21498151 1.0541668
-0.10471155 0.21452789 1.0550002
-0.096048862 0.21654671 1.0546002
-0.085289538 0.21811786 1.0565003
-0.075616024 0.21853401 1.05725
-0.064352721 0.21947138 1.0580001
-0.054149292 0.21867274 1.0575001
-0.044930041 0.21610793 1.0551668
-0.035770543 0.21761791 1.0563639
-0.023345381 0.21756028 1.0560912
-0.015031841 0.21547753 1.0548003
-0.005196502 0.21475774 1.0545002
0.0044962293 0.21558075 1.0553002
0.014153079 0.21840012 1.057143
0.026449496 0.21756944 1.0576251
0.03458675 0.21717924 1.0570004
0.044919606 0.21764855 1.0567503
0.055598449 0.21811786 1.0565003
0.064651124 0.21840014 1.057143
0.074976623 0.21739076 1.0555003
0.085163638 0.21490867 1.0548127
0.093581162 0.21674725 1.0558182
0.16728431 0.21947138 1.0580001
0.17550699 0.21818009 1.0568002
0.18452501 0.21692508 1.0557501
-0.1288971 0.22444549 1.052
-0.092952691 0.22237258 1.052
-0.087020107 0.22029966 1.052
-0.071316242 0.22029966 1.052
-0.065034695 0.22029966 1.052
-0.056659296 0.22029966 1.052
-0.043049276 0.22029966 1.052
-0.033504795 0.22136754 1.0528573
-0.024916081 0.22074986 1.0525001
0.008250026 0.22029966 1.052
0.016382592 0.22131258 1.053125
0.024385134 0.22083989 1.0526001
0.034423143 0.22029968 1.052
0.044194441 0.22064516 1.052
0.055361636 0.22029966 1.052
0.064783961 0.22029966 1.052
0.070018582 0.22029966 1.052
0.097902223 0.22113201 1.0535001
0.10541513 0.22286046 1.0535002
0.11446613 0.22374357 1.0543686
0.12448741 0.22310612 1.054786
0.13547559 0.22332337 1.0550001
0.14494252 0.22356334 1.054143
0.15466014 0.22530866 1.0568753
0.16407721 0.22425048 1.0550002
0.17209372 0.22081789 1.052
0.18413335 0.22029966 1.052
0.15481946 0.23066422 1.052
-0.14243005 0.086809732 1.0637144
-0.13529372 0.08655706 1.0643078
-0.12510207 0.08760719 1.0643001
-0.11749967 0.087990992 1.0663999
0.20819083 0.088966042 1.0680001
0.21501927 0.087665498 1.0650001
0.22128028 0.08762227 1.0645001
-0.13633512 0.09047357 1.0610001
-0.12457798 0.090942867 1.0616001
-0.11751798 0.092113927 1.0627143
0.2062341 0.094511285 1.0641334
0.21400057 0.09110745 1.0614287
0.22055271 0.09047357 1.0610001
0.20249665 0.10455318 1.0660001
0.19873983 0.14780261 1.0648334
0.199999 0.15257788 1.064
0.20075089 0.15736035 1.0680001
0.19748268 0.1678642 1.0656668
0.20075089 0.16156924 1.0680001
0.19439501 0.17467345 1.0616667
-0.12337967 0.1876919 1.0622
-0.11977874 0.18926765 1.064
0.19461069 0.18236588 1.0635
-0.12155278 0.19082464 1.0610001
-0.11944102 0.19082464 1.0610001
0.19315988 0.19769885 1.06425
-0.11521749 0.20964047 1.0610001
-0.01341287 0.20839304 1.0680001
-0.0057892026 0.20822266 1.06625
0.00092943839 0.20964047 1.0610001
0.084622286 0.20927981 1.0645001
0.19175309 0.20312749 1.06525
-0.11231288 0.21117976 1.0635
-0.10488476 0.21114023 1.0633
-0.094148763 0.21218403 1.0632857
-0.085755482 0.21401533 1.0639375
-0.074929506 0.21490234 1.0639411
-0.064518891 0.21497259 1.0639091
-0.054951679 0.21395347 1.064
-0.045886528 0.21212606 1.0649092
-0.034314852 0.21443681 1.0640714
-0.024732167 0.21369408 1.0640589
-0.014941888 0.21113183 1.0632501
-0.0082357023 0.21073255 1.0630001
0.0070500863 0.21183863 1.063889
0.015647084 0.21409559 1.0639499
0.024242792 0.21321692 1.0647647
0.034808729 0.21228635 1.0638001
0.045282174 0.21320021 1.0640589
0.05520191 0.21379587 1.0650667
0.064534754 0.2157076 1.0651667
0.074884571 0.21307245 1.0634118
0.085755199 0.21116941 1.0621251
0.095932238 0.21303131 1.0643078
0.10455099 0.21623722 1.0660557
0.11557861 0.21706294 1.0666667
0.12509221 0.21699512 1.0663333
0.13468598 0.21706297 1.0666667
0.14563622 0.21715671 1.0655386
0.1549118 0.21768634 1.0656002
0.16564089 0.21669284 1.0648572
0.17423634 0.21491624 1.0648462
0.18458816 0.21427639 1.0642999
0.019935299 0.2200937 1.0610001
0.022047061 0.2200937 1.0610001
0.10446723 0.22021817 1.0616001
0.11502723 0.22021817 1.0616001
0.12566657 0.22076078 1.0622
0.13454273 0.22113554 1.063143
0.14468916 0.22034262 1.0622001
0.15508808 0.22009371 1.0610001
0.16247925 0.2200937 1.0610001
-0.1420918 0.081981875 1.0758001
-0.13511503 0.082911156 1.0752858
-0.12555368 0.084004961 1.0755455
-0.11898801 0.084329978 1.076
0.20615108 0.087583192 1.074
0.21489727 0.085312687 1.075
0.22049978 0.084995247 1.0710001
0.19815537 0.095022172 1.077
0.2018889 0.095169134 1.074077
0.19903521 0.1028768 1.0751429
0.20126162 0.10587876 1.0730001
0.20104246 0.11257344 1.0764
0.1977316 0.15574065 1.0737501
0.19846696 0.16295621 1.0748334
0.2018787 0.16565132 1.074
0.19278812 0.17996107 1.0710001
-0.12056676 0.18840249 1.0710001
-0.11920918 0.18963388 1.0780001
0.19463389 0.18599914 1.0733335
-0.12135477 0.19706839 1.0780001
-0.11748939 0.19847572 1.077
0.19420925 0.19473355 1.0710001
-0.11420365 0.20568694 1.0741903
-0.10527088 0.20586275 1.0752105
-0.096571222 0.20694596 1.0760001
-0.0848796 0.20875119 1.0780001
-0.075224414 0.20875117 1.0780001
-0.065569215 0.20795463 1.0780001
-0.054790352 0.20778388 1.0770001
-0.045645799 0.20784084 1.0780001
-0.038749237 0.20875117 1.0780001
-0.022979967 0.20839386 1.0761667
-0.015344653 0.20576641 1.0743847
-0.0055935616 0.20360853 1.0745558
0.003801828 0.20836082 1.0760001
0.015340893 0.20773019 1.0774287
0.024137015 0.20778388 1.0770001
0.034558706 0.20839718 1.0780001
0.04557278 0.20832634 1.0780001
0.054563235 0.20761167 1.0776001
0.064597085 0.20839718 1.0780001
0.076239891 0.20785069 1.0753638
0.084442303 0.2064209 1.0757222
0.092777476 0.20758981 1.076125
0.18975697 0.20768911 1.0780001
0.19145754 0.20507988 1.0755
-0.1048722 0.21009284 1.074
-0.093115203 0.21009284 1.0740001
-0.083754435 0.21085978 1.0738751
-0.074840613 0.2108546 1.0725
-0.065790407 0.21066415 1.072875
-0.055459876 0.21039753 1.0733999
-0.045018367 0.21009284 1.074
-0.035423975 0.21141873 1.0747778
-0.026500847 0.21086153 1.0743334
0.0073537375 0.21009284 1.0740001
0.014835466 0.21009284 1.074
0.025523651 0.21009284 1.074
0.035143018 0.21009283 1.074
0.045803212 0.21039753 1.0733999
0.054001153 0.21034676 1.0735
0.065327995 0.21189876 1.0732144
0.072217576 0.2108615 1.0743334
0.096158102 0.21028847 1.0749999
0.10588686 0.21183838 1.0740911
0.11439764 0.21234335 1.0737273
0.1251325 0.21266989 1.0724546
0.13523456 0.21224302 1.0734288
0.14408122 0.21314722 1.0734167
0.1551729 0.21409635 1.0737501
0.16452301 0.21369109 1.0737274
0.17560966 0.21182488 1.075
0.18468587 0.21191983 1.0747
-0.15150711 0.077661753 1.0865002
-0.14482756 0.077806309 1.0858183
-0.13519077 0.077604473 1.0857337
-0.1247629 0.077496029 1.0863574
-0.11737239 0.07880418 1.0875001
0.21658152 0.079839379 1.0870001
0.2218906 0.079545572 1.0830001
-0.15181448 0.081528731 1.0810001
-0.14751133 0.081528731 1.0810001
-0.13245034 0.081528738 1.0810001
-0.12384407 0.081528738 1.0810001
-0.11621802 0.082703575 1.0844287
0.20540804 0.084923193 1.0851113
0.21468304 0.082874388 1.0847001
0.22168671 0.082669176 1.082
0.19962728 0.090382166 1.085
0.20104291 0.090048954 1.0810001
0.19782251 0.10612782 1.0835717
0.19849502 0.11457088 1.0855716
0.20098305 0.11833873 1.0865
0.19882053 0.12047963 1.0865
0.20178682 0.12031329 1.085
0.19673976 0.15608071 1.0810001
0.19541737 0.16563325 1.0847859
0.19673976 0.17205612 1.0810001
0.19530822 0.18765834 1.085
-0.11669311 0.19568877 1.0853078
-0.10492215 0.19952729 1.0856001
-0.09541174 0.1999684 1.0880001
-0.074839473 0.1999684 1.0880001
-0.015279874 0.19983055 1.08725
-0.0055136564 0.19919646 1.0838002
0.0020358413 0.1999684 1.0880001
0.016111603 0.1999684 1.0880001
0.023690861 0.1999684 1.0880001
0.04534588 0.1999684 1.0880001
0.07627894 0.19897807 1.0865002
0.084225081 0.19875197 1.0847144
0.092986912 0.1999684 1.0880001
0.18935175 0.1999684 1.0880001
0.19407958 0.19489469 1.0847274
-0.11236903 0.2015219 1.0810001
-0.10447995 0.20081189 1.0810002
-0.094632044 0.2030185 1.0824548
-0.085434414 0.2047658 1.08505
-0.074589603 0.20463362 1.08435
-0.064665742 0.20401755 1.0850003
-0.055180386 0.20362569 1.0846668
-0.044539869 0.20381831 1.0849335
-0.035321448 0.2065714 1.0840001
-0.025089005 0.2056205 1.0846251
-0.015676659 0.20204321 1.0827146
-0.0019218007 0.2015219 1.0810001
0.0056234035 0.20407727 1.0832778
0.014706734 0.20359889 1.0827694
0.024657065 0.20327681 1.0828003
0.03573164 0.20458736 1.085
0.044971552 0.20439157 1.0842003
0.054585978 0.20368017 1.084143
0.065642163 0.20496576 1.0834669
0.074069247 0.20328805 1.0828574
0.085133888 0.20184112 1.0814446
0.095867597 0.2048457 1.0838574
0.10473892 0.20722568 1.0848669
0.11328219 0.20803034 1.0853333
0.12438669 0.20854381 1.0880002
0.13495123 0.20804849 1.0846431
0.1435481 0.20806114 1.0855001
0.15037273 0.20854379 1.0880001
0.16675225 0.20732127 1.0861001
0.1751073 0.20801039 1.0843849
0.18538347 0.20656136 1.0845001
0.19075446 0.20343995 1.0836668
-0.035629719 0.21146217 1.0810001
0.11711259 0.21065536 1.0841668
0.12489283 0.21078445 1.0830001
0.14715028 0.21107648 1.0834001
0.15525192 0.2115428 1.0858001
0.16432354 0.21094668 1.0832223
0.18167879 0.21146217 1.0810001
-0.14253283 0.069193266 1.0965
-0.13548814 0.068676226 1.0968751
-0.12679546 0.069781855 1.09725
-0.14236149 0.072609015 1.0910001
-0.13500838 0.072740152 1.0930001
-0.12581439 0.072926901 1.0940001
-0.11589859 0.075661622 1.0930002
0.20748265 0.07848376 1.098
0.21591207 0.076322801 1.0954999
0.22187588 0.07505177 1.0953333
0.20394407 0.083704606 1.0940001
0.21256837 0.080231115 1.0923334
0.19710831 0.11494926 1.0950001
0.19742258 0.12431993 1.09675
0.20255689 0.12357982 1.095
0.19846803 0.13131119 1.0965
0.19421682 0.16612361 1.0910001
0.19728832 0.17552535 1.0960001
-0.11885536 0.189298 1.0945001
0.19454381 0.18555261 1.0953
-0.11336535 0.19389533 1.0940833
-0.10536139 0.19641729 1.0943749
-0.095126167 0.19716749 1.0954287
-0.086010396 0.19873977 1.0970001
-0.075026527 0.19891855 1.0960001
-0.06456621 0.19953369 1.0974001
-0.054221567 0.19751313 1.0958
-0.045180377 0.19752112 1.0952501
-0.035617478 0.19896552 1.09725
-0.023882117 0.19842464 1.09725
-0.014940014 0.19642167 1.0964286
-0.0055778068 0.19581096 1.0947498
0.0050521907 0.19685836 1.0960627
0.015128823 0.19699636 1.0953336
0.024283836 0.19781853 1.0951
0.035168141 0.19873977 1.097
0.044368505 0.19869509 1.09725
0.055596985 0.19964278 1.098
0.06584768 0.1985597 1.0971429
0.074161112 0.19754548 1.0938752
0.086004965 0.19645618 1.0933332
0.094338819 0.19663642 1.0953335
0.10390049 0.19864985 1.0965
0.16486725 0.19964278 1.098
0.17470157 0.19964278 1.098
0.18758418 0.19740131 1.0975716
0.19162333 0.19474231 1.0948001
-0.090246141 0.20051979 1.0910001
-0.084817462 0.20051979 1.0910001
-0.075045832 0.20051979 1.0910001
-0.065274209 0.20051979 1.0910001
-0.055502575 0.20051979 1.0910001
-0.044645213 0.20051979 1.0910001
-0.034552965 0.20243688 1.0923333
-0.025617838 0.20172028 1.0923334
0.0074701374 0.20051979 1.0910001
0.013984555 0.20051979 1.0910001
0.029184865 0.20051979 1.0910001
0.034613546 0.20051979 1.0910001
0.043661352 0.20051979 1.0910001
0.056002773 0.20100062 1.0916667
0.064652264 0.20123637 1.0910001
0.070442848 0.20051979 1.0910001
0.097948179 0.20123637 1.0910001
0.10577959 0.20250906 1.0919231
0.11552 0.20413403 1.0942667
0.12513475 0.204402 1.09455
0.13543981 0.20353043 1.0933334
0.14560473 0.20354269 1.0934001
0.15512867 0.20546202 1.0939047
0.16418782 0.20379658 1.094353
0.17539662 0.20299082 1.0935715
0.18424691 0.20295317 1.0937002
-0.11270443 0.059602972 1.1090001
-0.1429746 0.064354941 1.10625
-0.13463216 0.065322734 1.1060002
-0.1249262 0.066370115 1.1065001
-0.11546355 0.066704959 1.1090001
0.21949412 0.068343885 1.1090001
0.22170141 0.068343885 1.1090001
-0.12186319 0.071169659 1.102
-0.11788277 0.071415409 1.1058334
0.20650259 0.075013854 1.106143
0.21436375 0.072523914 1.106143
0.22030203 0.070083939 1.102
0.20330721 0.08465571 1.1080002
0.20147172 0.09112218 1.1070001
0.19852477 0.10877062 1.1090001
0.1958546 0.11520522 1.1043334
0.19430456 0.12249015 1.1074288
0.19702949 0.13407493 1.1068001
0.19889265 0.14118485 1.1090001
0.20183572 0.14154905 1.1090001
0.19411018 0.16886441 1.1090001
-0.11800946 0.17728898 1.1070001
0.19580667 0.1760577 1.1061251
-0.11513755 0.18703577 1.1066431
-0.098356977 0.18853147 1.1090001
-0.087320484 0.18853147 1.1090001
0.078226954 0.18853147 1.1090001
0.081537902 0.18853147 1.1090001
0.19393133 0.18416268 1.1052858
-0.1117281 0.19113252 1.103
-0.10504352 0.19132662 1.1033638
-0.095206164 0.19232576 1.1032002
-0.084470883 0.19389254 1.1043911
-0.074999765 0.19529651 1.1052666
-0.064931452 0.1952737 1.1053808
-0.055724449 0.19309261 1.1053078
-0.04469962 0.19308716 1.1049412
-0.035173014 0.19429716 1.105842
-0.025928054 0.19390658 1.1051363
-0.015149354 0.19168168 1.1040835
-0.0045242119 0.19085658 1.1035001
0.0051673986 0.19266172 1.1053637
0.015746806 0.19359776 1.1058574
0.025964009 0.19421031 1.1062353
0.034960538 0.19402859 1.1057777
0.044907089 0.19421408 1.1064284
0.054875828 0.19555521 1.1055
0.064539909 0.19525838 1.106125
0.075273417 0.19390644 1.1061875
0.0845415 0.19220303 1.1050001
0.095083348 0.19307999 1.1043637
0.10500249 0.19677977 1.10625
0.11542787 0.19780906 1.1059
0.12545723 0.1980053 1.107
0.1347592 0.19818853 1.1065001
0.14519066 0.19721471 1.1076667
0.15463193 0.19721913 1.1077694
0.16563088 0.19821279 1.1072859
0.17542511 0.19648144 1.1068751
0.18486451 0.19529156 1.1060667
0.19045512 0.19146143 1.1070001
-0.036321878 0.20037009 1.102
0.11502042 0.2003701 1.1020001
0.12489058 0.20037009 1.102
0.13483648 0.20047918 1.1026001
0.14502461 0.20091555 1.105
0.15458754 0.20047918 1.1026001
0.16546786 0.2003701 1.102
0.175338 0.20037009 1.102
0.18191811 0.20037009 1.102
-0.14266203 0.059246179 1.1160001
-0.13451754 0.059979189 1.1160001
-0.12452197 0.059979185 1.1160001
-0.11664205 0.058092918 1.115
-0.14080168 0.062011059 1.113
-0.13526353 0.062011059 1.113
-0.12474105 0.063107617 1.113
-0.11671072 0.064478308 1.113
0.20765927 0.067785919 1.1142
0.21542223 0.066906311 1.1142
0.22122213 0.065723926 1.1140001
0.20304462 0.074421071 1.114125
0.2025637 0.083942167 1.1130002
0.19813319 0.091618046 1.113
0.20034845 0.091618046 1.113
0.1947275 0.11468818 1.1134286
0.19526553 0.1267623 1.1135
0.19604994 0.13612205 1.11375
0.19686733 0.14472267 1.113
0.20108686 0.14900446 1.1130002
0.19755661 0.15013909 1.1160001
0.20034845 0.15192859 1.113
0.19239788 0.16816369 1.1140001
-0.11475407 0.17639093 1.1151431
0.19414572 0.17429832 1.113
-0.11373512 0.18314742 1.1148001
-0.10484882 0.18749546 1.1148462
-0.094777986 0.18708567 1.1145
-0.08523187 0.18856134 1.1147144
-0.074544258 0.18972148 1.1160001
-0.066769943 0.18972148 1.1160001
-0.04122578 0.18972148 1.1160001
-0.03604291 0.18898848 1.1160001
-0.026753265 0.18946648 1.1145
-0.013725592 0.18870558 1.1148751
-0.0045703063 0.18726844 1.1145
0.0046796715 0.18935499 1.1160002
0.016526241 0.18972149 1.1160001
0.026521781 0.18972148 1.1160001
0.035406709 0.18972148 1.1160001
0.044262618 0.18959397 1.1152501
0.05428718 0.18972148 1.1160001
0.069835804 0.18972148 1.1160001
0.075867079 0.18760684 1.1148751
0.085223161 0.18738773 1.1139001
0.093035012 0.18946648 1.1145
0.182008 0.18972148 1.1160001
0.19272408 0.18495128 1.11375
-0.075451501 0.19140458 1.113
-0.066036642 0.19140458 1.113
-0.052191261 0.19140458 1.113
-0.049976002 0.19140458 1.113
0.0076207719 0.19140458 1.1130002
0.014716103 0.19194639 1.1136001
0.023127599 0.19140458 1.1130002
0.049710725 0.19140458 1.113
0.055288345 0.19153357 1.1137501
0.064903952 0.19194208 1.1140001
0.071863331 0.19140458 1.113
0.098579139 0.1927591 1.1145
0.10549576 0.19437431 1.1146667
0.11452925 0.19540964 1.1150001
0.1243209 0.1955395 1.1151431
0.1352198 0.19622944 1.113
0.144647 0.1938283 1.1143334
0.1549356 0.19359769 1.113
0.16524564 0.19497885 1.1141539
0.17376533 0.19265778 1.113
0.18336479 0.19213562 1.113
-0.14144272 0.054793041 1.1225001
-0.13529681 0.055567276 1.1213125
-0.12563692 0.05641938 1.124
-0.11716611 0.054676905 1.12
0.20499156 0.065885268 1.1244615
0.21451417 0.063139111 1.1233751
0.22307169 0.063189581 1.1242501
0.20143127 0.074582197 1.124
0.19856894 0.086599946 1.1238334
0.20130736 0.083863609 1.123
0.19715011 0.091090813 1.12
0.19715011 0.10874604 1.12
0.19282076 0.12759085 1.12075
0.19495048 0.13474599 1.1238571
0.19404911 0.14417718 1.1227001
-0.11193681 0.17734751 1.1212
-0.10645717 0.17921537 1.1246001
-0.094949163 0.17858334 1.1262001
-0.010210222 0.17905736 1.125
-0.0079710763 0.17905736 1.125
0.19320786 0.1765282 1.123
-0.11047854 0.18267733 1.12
-0.10491491 0.18254216 1.1214443
-0.094686389 0.18250911 1.1230668
-0.085397899 0.18459006 1.1239231
-0.075021543 0.18650341 1.1231334
-0.064951107 0.18648241 1.123
-0.05487819 0.18641591 1.1226001
-0.04451054 0.18659218 1.1224546
-0.034768481 0.18818733 1.1226
-0.024277706 0.188035 1.1247144
-0.014514153 0.18469876 1.1222501
-0.0042982791 0.1822571 1.123
0.005218857 0.18507417 1.1229476
0.015519629 0.18657863 1.1235834
0.025177894 0.18671249 1.1221666
0.035014968 0.18541151 1.1232222
0.04442114 0.18589601 1.1232858
0.054544952 0.18713103 1.1248462
0.065045536 0.18596801 1.1237143
0.073371984 0.18450931 1.1215714
0.085249037 0.18382694 1.123
0.094806135 0.18654162 1.1243848
0.10536901 0.18865782 1.1253999
0.11314353 0.18937081 1.1270001
0.14566886 0.18937081 1.1270001
0.15464136 0.18937081 1.1270001
0.16922167 0.18937081 1.1270001
0.17482948 0.18937081 1.1270001
0.18607014 0.18761468 1.1258
0.19178812 0.18424737 1.122875
-0.06255088 0.19040149 1.12
-0.054748703 0.19040149 1.12
-0.04583193 0.19040149 1.1200001
-0.034685966 0.19040149 1.1200001
-0.022425406 0.19040149 1.12
0.012127087 0.19040149 1.12
0.021043859 0.19040149 1.12
0.054481752 0.19040149 1.12
0.064513117 0.19040149 1.12
0.09795101 0.19040149 1.12
0.10523769 0.19156589 1.1212857
0.1155123 0.19252518 1.12275
0.12612113 0.19338849 1.1227144
0.13518028 0.19353043 1.1221666
0.14374904 0.19159062 1.1232858
0.15505643 0.19182795 1.1219001
0.16470952 0.1922908 1.123
0.17504196 0.19060551 1.1212
0.18711874 0.19040149 1.12
0.19046253 0.19040149 1.12
-0.13430956 0.051962771 1.1330001
-0.12579548 0.053132534 1.1341667
0.20711367 0.058919203 1.138
0.21629396 0.058476433 1.1366668
0.22296879 0.058919199 1.138
0.19748732 0.062843345 1.138
0.20255034 0.063404106 1.1346668
0.2141414 0.060906284 1.13325
0.22444212 0.060946595 1.1340001
0.19848597 0.078822508 1.1340001
0.2011759 0.073625304 1.1343334
0.19793575 0.081728391 1.1330001
0.19805357 0.10825138 1.138
0.19805357 0.11161494 1.138
0.19233315 0.12987131 1.131
0.1883292 0.13691926 1.1340001
0.1919812 0.13643184 1.1322501
0.19185385 0.14372696 1.1348335
-0.11171155 0.17355698 1.1325001
-0.10495289 0.17654277 1.1342858
-0.095056646 0.17625421 1.1355
-0.08564999 0.17859299 1.134375
-0.074618056 0.17937458 1.1340001
-0.068975411 0.17937458 1.1340001
-0.052047476 0.17937458 1.1340001
-0.048661888 0.17937458 1.1340001
-0.01449781 0.17861693 1.1352857
-0.0037775727 0.17764498 1.1356667
0.0040789158 0.17765242 1.1360003
0.010021619 0.17937458 1.1340001
0.038302276 0.17856973 1.136
0.043916181 0.17897215 1.135
0.074347772 0.17937458 1.1340001
0.085600726 0.17868473 1.1357144
0.09304899 0.17897215 1.135
0.19177656 0.17641297 1.1334287
-0.082674645 0.18187146 1.131
-0.074493557 0.18242307 1.1321249
-0.0648541 0.18165785 1.1343334
-0.055581577 0.18203047 1.1331667
-0.045264579 0.18212271 1.1337502
-0.034824211 0.1841144 1.1344548
-0.025182469 0.18319193 1.1348825
-0.017478377 0.18211614 1.1316001
0.0072938018 0.18157433 1.131
0.015366088 0.18191035 1.1346365
0.024326412 0.18320505 1.1346668
0.033624738 0.18126936 1.135
0.045801625 0.18187971 1.1337143
0.05535436 0.18281418 1.1345716
0.064756133 0.18153478 1.1351113
0.076062255 0.18158013 1.1315001
0.084426828 0.18100046 1.133
0.095243543 0.18250969 1.1334444
0.10477748 0.1837436 1.1346823
0.11504582 0.18506809 1.1346875
0.1250059 0.186528 1.1357858
0.13518314 0.18635753 1.1367693
0.14499483 0.1865626 1.135923
0.15499853 0.18616135 1.1355002
0.1654959 0.18678984 1.1360834
0.17521143 0.18497673 1.1352108
0.18489106 0.18386188 1.1350667
0.19008206 0.1822429 1.131
0.11804728 0.19004293 1.131
0.12488404 0.19100466 1.1317501
0.13423823 0.19086979 1.1315001
0.14055815 0.19004293 1.131
0.16419455 0.19004293 1.131
-0.14223926 0.047139462 1.146
-0.13471216 0.048042715 1.146
-0.12786934 0.048042715 1.146
-0.1435869 0.050213065 1.1440001
-0.13537845 0.050125279 1.1420001
-0.12582688 0.050731733 1.1430001
0.20532842 0.05698875 1.1442858
0.21503654 0.055395741 1.1440001
0.22147954 0.056876041 1.1420001
0.20125744 0.074968122 1.1433334
0.19602445 0.12256119 1.146
0.18965781 0.14013544 1.1420001
0.1903221 0.14514253 1.146
-0.11335495 0.16837904 1.1453333
-0.10620038 0.16998203 1.146
-0.11151215 0.171639 1.1420001
-0.10487656 0.17306469 1.1440001
-0.096001126 0.17335652 1.1448572
-0.085092396 0.17709523 1.1433334
-0.075340867 0.17772929 1.145
-0.065903738 0.17863822 1.146
-0.054879181 0.17788549 1.146
-0.048036359 0.17901456 1.146
-0.03397055 0.17901456 1.1460001
-0.02470327 0.17778014 1.1442858
-0.014367675 0.1755064 1.1440001
-0.005146048 0.17374057 1.1440001
0.0050972374 0.1744611 1.1428001
0.014173935 0.17787211 1.1451112
0.025181888 0.17856294 1.146
0.034858204 0.17754568 1.1448572
0.045578871 0.17745754 1.1442858
0.054606043 0.17901456 1.146
0.0656306 0.17901456 1.1460001
0.076235823 0.17763492 1.1454285
0.085411415 0.17493309 1.14425
0.095040254 0.17621981 1.1440001
0.10289717 0.17813762 1.1440001
0.16979362 0.17901456 1.146
0.17549598 0.17901456 1.146
0.18629912 0.17843124 1.1446667
0.19193079 0.17388923 1.1420001
-0.036503784 0.18064 1.1420001
0.019184241 0.18064 1.1420001
0.024866693 0.18064 1.1420001
0.055551939 0.18064001 1.1420001
0.066916838 0.18064 1.1420001
0.11464943 0.18064 1.1420001
0.12509654 0.18208149 1.1440001
0.13480972 0.18217136 1.1437778
0.1449839 0.18199164 1.1442223
0.15469703 0.18208149 1.1440001
0.16475843 0.18218702 1.1427274
0.17488344 0.18064 1.1420001
0.18283886 0.18064001 1.1420001
-0.1412722 0.036976527 1.153
-0.13565286 0.037448861 1.1549091
-0.12684563 0.03887419 1.1554
-0.14179012 0.042959042 1.151
-0.13543707 0.043757867 1.1521666
-0.1247615 0.044527862 1.1524444
-0.11873394 0.046224046 1.1570001
0.20826878 0.046224046 1.1570001
-0.12168581 0.051711142 1.1522501
-0.11796634 0.051543605 1.1570001
0.19871335 0.058659457 1.155
0.20473424 0.053889051 1.1537856
0.21539533 0.051697209 1.152
0.22246543 0.050608099 1.153
0.19905744 0.077001482 1.1570001
0.20040306 0.076636925 1.1515
0.19905744 0.080421202 1.1570001
0.19722182 0.10967824 1.153
0.19632557 0.11569651 1.1532726
0.19461639 0.12321983 1.1521429
-0.11369751 0.16529205 1.1526667
-0.10554351 0.16727041 1.1538
-0.09533485 0.16868985 1.1526
-0.08879707 0.1693338 1.1570001
-0.056557365 0.1693338 1.1570001
-0.024317663 0.1693338 1.1570001
-0.014226156 0.16825932 1.1554999
-0.0048374319 0.16689086 1.1544545
0.0028489244 0.16807063 1.1546
0.015981968 0.1693338 1.1570001
0.02491316 0.16852659 1.1546
0.033253241 0.1693338 1.1570001
0.045918841 0.1693338 1.1570001
0.057433017 0.1693338 1.1570001
0.067636877 0.16894352 1.1543334
0.075123169 0.16784631 1.1546251
0.084312283 0.16783407 1.1534287
0.092836499 0.16879718 1.1533334
0.19473764 0.16584736 1.1556666
-0.10504513 0.17057535 1.1500001
-0.09401162 0.17176399 1.1503751
-0.084867552 0.17381093 1.1541537
-0.075102799 0.1732543 1.1538571
-0.064680994 0.17435652 1.1521175
-0.05514681 0.17307669 1.1515834
-0.045164283 0.17605376 1.1538945
-0.034667548 0.17600271 1.1536154
-0.025641277 0.17360301 1.1527691
-0.016397892 0.17225054 1.1506001
-0.0047148564 0.17057535 1.1500001
0.0044514663 0.17200576 1.152
0.015053181 0.17344165 1.1521249
0.024995675 0.17395657 1.1514001
0.034420326 0.17362529 1.152
0.044908095 0.17300962 1.1522143
0.054951496 0.17446084 1.1532499
0.065121986 0.17483619 1.152318
0.074809872 0.17343277 1.1504614
0.083865725 0.17102855 1.1500001
0.095982373 0.17253688 1.1513333
0.1053407 0.17520222 1.153857
0.11443615 0.17701356 1.1535999
0.12455941 0.17635065 1.1552
0.13520695 0.17645703 1.1534545
0.14486292 0.17788291 1.1533334
0.15505628 0.17761268 1.1538461
0.16519824 0.17803833 1.1530001
0.17478955 0.17670465 1.1522222
0.18538302 0.17526698 1.1540667
0.19340165 0.17259906 1.1527144
0.12608069 0.18010803 1.153
0.13411276 0.18010804 1.1530001
0.14558713 0.18010803 1.153
0.1570615 0.18010803 1.153
-0.13424304 0.033914067 1.1650002
-0.12466552 0.035221078 1.1640002
-0.11914443 0.039520778 1.161
