# .PCD v0.7 - Point Cloud Data file format
VERSION 0.7
FIELDS x y z
SIZE 4 4 4
TYPE F F F
COUNT 1 1 1
WIDTH 1467
HEIGHT 1
VIEWPOINT 0 0 0 1 0 0 0
POINTS 1467
DATA ascii
0.077679038 -0.39279237 1.6650001
0.14395772 -0.39279237 1.6650001
0.23775491 -0.38901779 1.649
0.28508052 -0.39090508 1.6570001
0.30486858 -0.39090508 1.6570001
0.31652504 -0.38901779 1.649
0.34765112 -0.3871305 1.641
0.45437276 -0.38901779 1.649
0.5795489 -0.3871305 1.641
0.61547673 -0.3871305 1.641
0.64145178 -0.38901779 1.649
0.71019554 -0.3871305 1.641
0.74532694 -0.38170454 1.618
0.80651432 -0.38170454 1.618
-0.23607782 -0.39325461 1.6810001
-0.17919955 -0.39325461 1.6810001
-0.13905019 -0.39325461 1.6810001
-0.068134077 -0.38951156 1.6650001
0.054219723 -0.38764003 1.6570001
0.22241831 -0.38764003 1.6570001
0.24668968 -0.38951156 1.6650001
0.33455068 -0.38764003 1.6570001
0.39664361 -0.38389698 1.641
0.45870075 -0.38389698 1.641
0.77221072 -0.38225943 1.6340001
0.78397161 -0.37851638 1.618
0.79755682 -0.3803879 1.626
-0.19927423 -0.38994229 1.6810001
-0.11452916 -0.38623077 1.6650001
-0.051316645 -0.38437501 1.6570001
-0.045152448 -0.38808653 1.6730001
0.26529244 -0.38437501 1.6570001
0.2765151 -0.38623077 1.6650001
0.2968325 -0.38251925 1.649
0.56211346 -0.38437501 1.6570001
0.73632485 -0.38066348 1.641
-0.10176002 -0.38478997 1.6730001
-0.064508691 -0.38110995 1.6570001
-0.015111128 -0.38294998 1.6650001
0.03809398 -0.38478997 1.6730001
0.1069879 -0.38110995 1.6570001
0.20493403 -0.37926996 1.649
0.33949965 -0.37926996 1.649
0.34774274 -0.38110995 1.6570001
0.41498771 -0.37926996 1.649
0.44008705 -0.38110995 1.6570001
0.47176543 -0.37742996 1.641
0.64160603 -0.37742996 1.641
0.72667944 -0.37581998 1.6340001
-0.21830502 -0.38149339 1.6730001
-0.085110731 -0.38149339 1.6730001
0.180411 -0.37966916 1.6650001
0.28178251 -0.37784493 1.6570001
0.3162823 -0.37966916 1.6650001
0.38402086 -0.37784493 1.6570001
0.45987514 -0.37784493 1.6570001
0.50688618 -0.3760207 1.649
0.59839159 -0.37784493 1.6570001
0.66770852 -0.3760207 1.649
0.71037567 -0.3760207 1.649
0.77813894 -0.37077603 1.626
-0.2349543 -0.37819684 1.6730001
-0.02529368 -0.3800053 1.6810001
0.02797002 -0.37638837 1.6650001
0.071392551 -0.37819684 1.6730001
0.13337201 -0.37457991 1.6570001
0.16965012 -0.37457991 1.6570001
0.1903528 -0.37638837 1.6650001
0.24220638 -0.37457991 1.6570001
0.28977084 -0.37638837 1.6650001
0.30634052 -0.37638837 1.6650001
0.3361659 -0.37638837 1.6650001
0.35591012 -0.37277141 1.649
0.49789473 -0.37096295 1.641
0.5142256 -0.37096295 1.641
0.53055638 -0.37096295 1.641
0.56924582 -0.37277141 1.649
0.58237422 -0.37277141 1.649
0.74901217 -0.36757207 1.626
0.80148077 -0.36938056 1.6340001
-0.11562974 -0.37669298 1.6810001
-0.051812161 -0.37490028 1.6730001
-0.044936538 -0.37310758 1.6650001
0.088041835 -0.37490028 1.6730001
0.22680607 -0.37310758 1.6650001
0.42564213 -0.37310758 1.6650001
0.48625922 -0.37131485 1.6570001
0.49945125 -0.37131485 1.6570001
0.53970706 -0.36952215 1.649
0.55488557 -0.37310758 1.6650001
0.56814134 -0.37310758 1.6650001
0.63137174 -0.37131485 1.6570001
0.69068313 -0.36952215 1.649
0.70039701 -0.36772946 1.641
0.77551883 -0.36772946 1.641
-0.0085647805 -0.37338066 1.6810001
0.047853623 -0.36982676 1.6650001
0.20360853 -0.36982676 1.6650001
0.24787498 -0.37160373 1.6730001
0.36599132 -0.36982676 1.6650001
0.42029899 -0.36804983 1.6570001
0.4740653 -0.36627287 1.649
0.59133887 -0.36982676 1.6650001
0.61191297 -0.36627287 1.649
0.68080002 -0.36449593 1.641
0.74938953 -0.36449593 1.641
-0.33132482 -0.19130839 0.86900002
-0.17679529 -0.37204969 1.6900001
-0.091331616 -0.36654598 1.6650001
-0.042022578 -0.37006834 1.6810001
0.0080864122 -0.36654598 1.6650001
0.031584579 -0.37006834 1.6810001
0.1446494 -0.36830714 1.6730001
0.27451384 -0.36830714 1.6730001
0.36093479 -0.36478478 1.6570001
0.43796232 -0.36302361 1.649
0.54162985 -0.36654598 1.6650001
0.57200754 -0.36478478 1.6570001
0.66764987 -0.36478478 1.6570001
0.73335028 -0.36302361 1.649
0.80726576 -0.35796022 1.626
0.1846077 -0.36501059 1.6730001
0.21686427 -0.36326519 1.6650001
0.23231235 -0.36151975 1.6570001
0.37742484 -0.36151975 1.6570001
0.40051091 -0.36151975 1.6570001
0.52001452 -0.35977432 1.649
0.58519953 -0.36151975 1.6570001
0.60790855 -0.36326519 1.6650001
0.62504137 -0.35977432 1.649
0.75269729 -0.3565017 1.6340001
0.76570624 -0.3565017 1.6340001
0.79184967 -0.35802892 1.641
-0.22388698 -0.36538956 1.6900001
-0.055405699 -0.36344367 1.6810001
-0.0254291 -0.36538956 1.6900001
0.097562641 -0.35998437 1.6650001
0.10802098 -0.36171404 1.6730001
0.13732985 -0.35998437 1.6650001
0.15796883 -0.36171404 1.6730001
0.49192083 -0.35998437 1.6650001
0.51843232 -0.35998437 1.6650001
-0.17585377 -0.36013135 1.6810001
-0.13643096 -0.3620595 1.6900001
-0.09555506 -0.36013135 1.6810001
-0.06513159 -0.35841745 1.6730001
-0.045152448 -0.35841745 1.6730001
0.031753682 -0.3620595 1.6900001
0.065042377 -0.36013135 1.6810001
0.21912029 -0.35498968 1.6570001
0.46317315 -0.35498968 1.6570001
0.59839159 -0.35498968 1.6570001
0.67427266 -0.35327581 1.649
0.7134617 -0.3515619 1.641
0.74285716 -0.3515619 1.641
-0.20931157 -0.35681903 1.6810001
-0.19592845 -0.35681903 1.6810001
-0.11174959 -0.3551209 1.6730001
-0.042247567 -0.35872945 1.6900001
-0.028639458 -0.35681903 1.6810001
0.12526642 -0.35681903 1.6810001
0.15389952 -0.35342276 1.6650001
0.16715525 -0.35342276 1.6650001
0.19792712 -0.3551209 1.6730001
0.27982903 -0.35342276 1.6650001
0.30448255 -0.3551209 1.6730001
0.43349102 -0.35172465 1.6570001
0.45546755 -0.35342276 1.6650001
0.48296121 -0.35172465 1.6570001
0.52253735 -0.35172465 1.6570001
0.53572941 -0.35172465 1.6570001
0.55755174 -0.3551209 1.6730001
0.57420099 -0.3551209 1.6730001
0.63442004 -0.35342276 1.6650001
0.64473391 -0.35002652 1.649
0.68411893 -0.35002652 1.649
0.69733196 -0.35172465 1.6570001
0.74976075 -0.35002652 1.649
-0.16334051 -0.35539937 1.6900001
-0.1263399 -0.35539937 1.6900001
0.088462837 -0.35350671 1.6810001
0.098031409 -0.35182434 1.6730001
0.11468069 -0.35182434 1.6730001
0.1453411 -0.35350671 1.6810001
0.21457641 -0.35182434 1.6730001
0.35776025 -0.35182434 1.6730001
0.54423231 -0.35182434 1.6730001
0.56482738 -0.35014197 1.6650001
0.58752042 -0.35182434 1.6730001
0.67087328 -0.35014197 1.6650001
0.71382201 -0.3484596 1.6570001
-0.23061438 -0.35206932 1.6900001
-0.14652205 -0.35206932 1.6900001
-0.098430164 -0.34852779 1.6730001
-0.011910561 -0.35019436 1.6810001
0.0014804438 -0.35206932 1.6900001
0.16541578 -0.35019436 1.6810001
0.24337575 -0.34686118 1.6650001
0.26244339 -0.35019436 1.6810001
0.32622412 -0.34686118 1.6650001
0.34279379 -0.34686118 1.6650001
0.63796777 -0.34519458 1.6570001
0.65761757 -0.34686118 1.6650001
0.69075692 -0.34686118 1.6650001
0.75592184 -0.34186137 1.641
0.78258163 -0.34352797 1.649
0.79822856 -0.34040311 1.6340001
-0.11897552 -0.34688205 1.6810001
-0.059066031 -0.34873927 1.6900001
0.048572145 -0.34873927 1.6900001
0.1379897 -0.34523121 1.6730001
0.17545313 -0.34688205 1.6810001
0.2201782 -0.34358037 1.6650001
0.29971263 -0.34358037 1.6650001
0.45432612 -0.34523121 1.6730001
0.4709754 -0.34523121 1.6730001
0.59796673 -0.34358037 1.6650001
0.64786178 -0.34192955 1.6570001
0.72022194 -0.34027871 1.649
0.81212038 -0.34027871 1.649
-0.16916221 -0.34356973 1.6810001
-0.15243331 -0.34356973 1.6810001
-0.10952143 -0.34540921 1.6900001
0.071392551 -0.34193465 1.6730001
0.092300154 -0.34540921 1.6900001
0.12257339 -0.34540921 1.6900001
0.15463898 -0.34193465 1.6730001
0.16795841 -0.34193465 1.6730001
0.19887358 -0.34356973 1.6810001
0.27451384 -0.34193465 1.6730001
0.3162823 -0.34029958 1.6650001
0.3626774 -0.34029958 1.6650001
0.39105883 -0.34193465 1.6730001
0.41436782 -0.34193465 1.6730001
0.48955724 -0.3386645 1.6570001
0.61748916 -0.34193465 1.6730001
0.70069867 -0.34029958 1.6650001
0.76572037 -0.33539435 1.641
-0.23958878 -0.34531775 1.7060001
-0.21818759 -0.34369844 1.6980001
-0.079248197 -0.34207913 1.6900001
0.21560247 -0.34025741 1.6810001
0.25786453 -0.3386381 1.6730001
0.28783327 -0.3386381 1.6730001
0.4024446 -0.33701879 1.6650001
0.63746828 -0.3386381 1.6730001
0.6740967 -0.3386381 1.6730001
0.68741614 -0.3386381 1.6730001
0.70722598 -0.33539948 1.6570001
0.78531736 -0.33216086 1.641
-0.082171939 -0.33694509 1.6810001
-0.055405699 -0.33694509 1.6810001
0.05165926 -0.33694509 1.6810001
0.12192063 -0.33694509 1.6810001
0.30115271 -0.33534151 1.6730001
0.37924707 -0.33373797 1.6650001
0.4223282 -0.33373797 1.6650001
0.61785036 -0.33373797 1.6650001
0.69403392 -0.33213443 1.6570001
0.8016482 -0.32892734 1.641
-0.23061438 -0.33541903 1.6900001
-0.18439142 -0.33700681 1.6980001
-0.14383604 -0.33700681 1.6980001
-0.12355834 -0.33700681 1.6980001
-0.042447552 -0.33700681 1.6980001
-0.0086106351 -0.33541903 1.6900001
0.065042377 -0.33363274 1.6810001
0.14611925 -0.33541903 1.6900001
0.24454512 -0.33204496 1.6730001
0.28066698 -0.33541903 1.6900001
0.45546755 -0.33045718 1.6650001
-0.20804875 -0.33366099 1.6980001
-0.13306728 -0.33208895 1.6900001
-0.09555506 -0.33032042 1.6810001
0.018298909 -0.33208895 1.6900001
0.028524378 -0.33366099 1.6980001
0.13530377 -0.33032042 1.6810001
0.17545313 -0.33032042 1.6810001
0.18648356 -0.33208895 1.6900001
0.30421284 -0.33208895 1.6900001
0.46540937 -0.32717639 1.6650001
0.50427395 -0.3287484 1.6730001
0.53831589 -0.32717639 1.6650001
0.58029246 -0.33032042 1.6810001
0.6808151 -0.32717639 1.6650001
0.74046588 -0.32717639 1.6650001
0.76617116 -0.32403234 1.649
0.81797898 -0.32246032 1.641
-0.2171596 -0.3287589 1.6900001
-0.19697745 -0.3287589 1.6900001
-0.11624882 -0.3287589 1.6900001
-0.075480379 -0.3270081 1.6810001
0.28251806 -0.3270081 1.6810001
0.32935899 -0.3270081 1.6810001
0.34608787 -0.3270081 1.6810001
0.35947099 -0.3270081 1.6810001
0.3761999 -0.3270081 1.6810001
0.48197904 -0.32389557 1.6650001
0.53091288 -0.32545185 1.6730001
0.54683465 -0.3270081 1.6810001
0.70406544 -0.32545185 1.6730001
0.78308028 -0.32233933 1.6570001
0.80616635 -0.32233933 1.6570001
-0.10666025 -0.32696933 1.6980001
0.21790627 -0.32215527 1.6730001
0.25039375 -0.32542884 1.6900001
0.36441997 -0.32215527 1.6730001
0.43307817 -0.32369578 1.6810001
0.76697737 -0.32061478 1.6650001
-0.12753601 -0.32514822 1.7060001
-0.045611259 -0.32209879 1.6900001
0.025026295 -0.32209879 1.6900001
0.089357466 -0.32362351 1.6980001
0.23357527 -0.32209879 1.6900001
0.29551402 -0.32362351 1.6980001
0.32113183 -0.31885871 1.6730001
0.35110053 -0.31885871 1.6730001
0.38106927 -0.31885871 1.6730001
0.44646129 -0.32038343 1.6810001
0.52174622 -0.317334 1.6650001
0.5602178 -0.32038343 1.6810001
0.64720809 -0.32038343 1.6810001
0.69738477 -0.317334 1.6650001
0.71064049 -0.317334 1.6650001
0.74350411 -0.31580925 1.6570001
-0.0728641 -0.32027769 1.6980001
0.055561308 -0.32027769 1.6980001
0.16032939 -0.32027769 1.6980001
0.17722747 -0.32027769 1.6980001
0.30593851 -0.31707111 1.6810001
0.46653596 -0.31707111 1.6810001
0.58698404 -0.31707111 1.6810001
0.60036713 -0.31707111 1.6810001
-0.21379592 -0.31543866 1.6900001
-0.10279404 -0.31543866 1.6900001
0.082209073 -0.31543866 1.6900001
0.095663846 -0.31543866 1.6900001
0.14343131 -0.31693187 1.6980001
0.19218202 -0.31375879 1.6810001
0.21675681 -0.31543866 1.6900001
0.22898559 -0.31375879 1.6810001
0.2457145 -0.31375879 1.6810001
0.28403068 -0.31543866 1.6900001
0.33448607 -0.31543866 1.6900001
0.42435741 -0.31226557 1.6730001
0.45099625 -0.31226557 1.6730001
0.49664798 -0.31375879 1.6810001
0.56421143 -0.31226557 1.6730001
0.59418017 -0.31226557 1.6730001
0.74402374 -0.31226557 1.6730001
-0.21242449 -0.31506348 1.7060001
-0.15809587 -0.31506348 1.7060001
-0.075884499 -0.31210861 1.6900001
-0.042647544 -0.31506348 1.7060001
0.15621033 -0.31210861 1.6900001
0.25157902 -0.31358603 1.6980001
0.27185673 -0.31358603 1.6980001
0.37821406 -0.31210861 1.6900001
0.39166886 -0.31210861 1.6900001
0.40512362 -0.31210861 1.6900001
0.46764556 -0.30896902 1.6730001
0.48326486 -0.31044647 1.6810001
0.64745784 -0.30896902 1.6730001
0.67062855 -0.31044647 1.6810001
0.78065217 -0.30896902 1.6730001
-0.19884233 -0.31170189 1.7060001
-0.13503574 -0.31334627 1.715
-0.11003987 -0.31024021 1.6980001
-0.069811858 -0.31170189 1.7060001
0.12257339 -0.30877855 1.6900001
0.13939187 -0.30877855 1.6900001
0.31241211 -0.31024021 1.6980001
0.32266742 -0.30713415 1.6810001
0.43539685 -0.30877855 1.6900001
0.44885162 -0.30877855 1.6900001
0.73715198 -0.30421078 1.6650001
-0.23061238 -0.30996695 1.715
-0.17167802 -0.30834031 1.7060001
-0.15397489 -0.30689439 1.6980001
-0.13093156 -0.30834031 1.7060001
-0.0086513953 -0.30689439 1.6980001
0.018472154 -0.30834031 1.7060001
0.18736632 -0.30689439 1.6980001
0.2042644 -0.30689439 1.6980001
0.24703005 -0.30544847 1.6900001
0.28332418 -0.30834031 1.7060001
0.37285411 -0.3038218 1.6810001
0.40965769 -0.3038218 1.6810001
0.46567008 -0.30544847 1.6900001
0.4876247 -0.30237591 1.6730001
0.52341419 -0.3038218 1.6810001
0.55985349 -0.30544847 1.6900001
0.66410714 -0.30237591 1.6730001
0.68075645 -0.30237591 1.6730001
0.80396116 -0.30237591 1.6730001
-0.18101181 -0.30354857 1.6980001
-0.11734939 -0.3049787 1.7060001
-0.083394006 -0.3049787 1.7060001
-0.045827169 -0.30354857 1.6980001
0.21778286 -0.30354857 1.6980001
0.26295096 -0.3049787 1.7060001
0.3529675 -0.30354857 1.6980001
0.37324518 -0.30354857 1.6980001
0.42973238 -0.30050948 1.6810001
0.58339936 -0.30211842 1.6900001
0.71412367 -0.30050948 1.6810001
-0.059939787 -0.30320829 1.715
0.059218615 -0.30161712 1.7060001
0.25276431 -0.30161712 1.7060001
0.3210313 -0.29878837 1.6900001
0.34457713 -0.29878837 1.6900001
0.3613956 -0.29878837 1.6900001
0.51759338 -0.29578277 1.6730001
0.62712735 -0.29878837 1.6900001
0.79680282 -0.29436839 1.6650001
-0.2226111 -0.29825553 1.7060001
-0.18623751 -0.29982898 1.715
-0.15210299 -0.29982898 1.715
-0.10090122 -0.29982898 1.715
-0.076243713 -0.29685691 1.6980001
-0.032308709 -0.29685691 1.6980001
0.19657464 -0.29545829 1.6900001
0.28537518 -0.29685691 1.6980001
0.37485039 -0.29545829 1.6900001
0.54090244 -0.29248622 1.6730001
0.55352622 -0.29388484 1.6810001
0.57694668 -0.29388484 1.6810001
0.59349042 -0.29545829 1.6900001
0.71738487 -0.29248622 1.6730001
0.74758148 -0.29388484 1.6810001
-0.19989131 -0.29644966 1.715
-0.16575681 -0.29644966 1.715
-0.14111817 -0.29489395 1.7060001
-0.08638256 -0.29351109 1.6980001
0.038845383 -0.29489395 1.7060001
0.12712939 -0.29489395 1.7060001
0.21339311 -0.29212824 1.6900001
0.30565289 -0.29351109 1.6980001
0.38830516 -0.29212824 1.6900001
0.41718021 -0.29351109 1.6980001
0.47125405 -0.29351109 1.6980001
0.47322753 -0.29057249 1.6810001
0.48248857 -0.29212824 1.6900001
0.51276177 -0.29212824 1.6900001
0.70449233 -0.29212824 1.6900001
0.73085254 -0.29057249 1.6810001
0.76096457 -0.29057249 1.6810001
0.81728059 -0.28918967 1.6730001
-0.2056334 -0.29153237 1.7060001
-0.0019010789 -0.29153237 1.7060001
0.031903993 -0.29016528 1.6980001
0.052181691 -0.29016528 1.6980001
0.082598232 -0.29016528 1.6980001
0.099496312 -0.29016528 1.6980001
0.11301478 -0.29016528 1.6980001
0.16787586 -0.29153237 1.7060001
0.26847711 -0.29016528 1.6980001
0.52621657 -0.28879818 1.6900001
0.56588334 -0.29016528 1.6980001
0.64058214 -0.28879818 1.6900001
0.75068343 -0.28589308 1.6730001
-0.12880689 -0.29104233 1.723
-0.10376724 -0.28817078 1.7060001
0.069771379 -0.289691 1.715
0.13667208 -0.28681946 1.6980001
0.3376528 -0.28817078 1.7060001
0.40512362 -0.28546813 1.6900001
0.49153176 -0.28681946 1.6980001
0.52006847 -0.28394786 1.6810001
0.70074058 -0.28394786 1.6810001
0.81115127 -0.28394786 1.6810001
-0.21797062 -0.28764725 1.723
-0.19053562 -0.28764725 1.723
-0.083833955 -0.28631169 1.715
-0.039459076 -0.28631169 1.715
-0.015483233 -0.2848092 1.7060001
0.07280077 -0.2848092 1.7060001
0.1107328 -0.28631169 1.715
0.30188611 -0.28631169 1.715
0.35802603 -0.2848092 1.7060001
0.41521469 -0.28213805 1.6900001
0.43203315 -0.28213805 1.6900001
0.64720809 -0.28063554 1.6810001
0.76733273 -0.27929997 1.6730001
0.78065217 -0.27929997 1.6730001
-0.10823064 -0.28425217 1.723
-0.056526337 -0.28293237 1.715
-0.0053493977 -0.28425217 1.723
0.035636865 -0.28293237 1.715
0.056117576 -0.28293237 1.715
0.096569538 -0.28144759 1.7060001
0.12033831 -0.28144759 1.7060001
0.14828077 -0.28293237 1.715
0.16370901 -0.28012779 1.6980001
0.17806247 -0.28144759 1.7060001
0.21440324 -0.28012779 1.6980001
0.2481994 -0.28012779 1.6980001
0.31048849 -0.28144759 1.7060001
0.33268979 -0.28012779 1.6980001
0.66076428 -0.278808 1.6900001
0.67062855 -0.27732322 1.6810001
0.69430876 -0.28012779 1.6980001
-0.22037204 -0.27955306 1.715
-0.14252438 -0.28085709 1.723
-0.079998471 -0.27808601 1.7060001
-0.049438622 -0.27808601 1.7060001
0.073526226 -0.28085709 1.723
0.2245421 -0.27678198 1.6980001
0.26634648 -0.27808601 1.7060001
0.32407066 -0.27808601 1.7060001
0.45989218 -0.27808601 1.7060001
0.50603443 -0.27547795 1.6900001
0.52532792 -0.27678198 1.6980001
0.5463987 -0.27547795 1.6900001
0.56515384 -0.27808601 1.7060001
0.72467446 -0.27547795 1.6900001
-0.1589299 -0.27617371 1.715
-0.13223626 -0.27746201 1.723
-0.063020781 -0.27472442 1.7060001
-0.043072522 -0.27746201 1.723
-0.022391818 -0.27617371 1.715
0.052427538 -0.27472442 1.7060001
0.11810809 -0.27746201 1.723
0.18398671 -0.27343616 1.6980001
0.3032943 -0.27746201 1.723
0.3529675 -0.27343616 1.6980001
0.37500373 -0.27472442 1.7060001
0.3885859 -0.27472442 1.7060001
0.55496722 -0.27472442 1.7060001
0.62376368 -0.27214786 1.6900001
0.64361447 -0.27343616 1.6980001
0.69776493 -0.27214786 1.6900001
-0.18367688 -0.27406693 1.723
-0.13844918 -0.2727944 1.715
0.018569604 -0.2727944 1.715
0.039232474 -0.27406693 1.723
0.10096122 -0.27406693 1.723
0.14554308 -0.27406693 1.723
0.19948255 -0.2727944 1.715
0.3969025 -0.27009034 1.6980001
0.40895912 -0.27136284 1.7060001
0.47912487 -0.26881781 1.6900001
0.62287802 -0.27136284 1.7060001
-0.2457681 -0.27491334 1.7500001
-0.091083765 -0.27067181 1.723
-0.077366263 -0.27067181 1.723
0.028809959 -0.26941508 1.715
0.07009685 -0.27067181 1.723
0.080011733 -0.26941508 1.715
0.17558838 -0.26941508 1.715
0.27799195 -0.26941508 1.715
0.30871302 -0.26941508 1.715
0.34626096 -0.26941508 1.715
0.4138006 -0.26674449 1.6980001
0.42933235 -0.26800126 1.7060001
0.5228529 -0.26548776 1.6900001
0.64394581 -0.26548776 1.6900001
0.72810489 -0.26674449 1.6980001
0.7448566 -0.26548776 1.6900001
-0.19306442 -0.26603577 1.715
-0.026061065 -0.26867285 1.7320001
0.0015172359 -0.26867285 1.7320001
0.049520597 -0.26727673 1.723
0.50403422 -0.26463968 1.7060001
0.59629989 -0.26339868 1.6980001
0.66022897 -0.26463968 1.7060001
0.70097542 -0.26463968 1.7060001
0.76431036 -0.26076156 1.6810001
0.77512985 -0.26215771 1.6900001
0.79867572 -0.26215771 1.6900001
-0.24450415 -0.2666384 1.7410001
-0.17941061 -0.26265645 1.715
-0.12820883 -0.26265645 1.715
-0.015719203 -0.26526004 1.7320001
-0.0019200228 -0.26388165 1.723
0.18145801 -0.26127806 1.7060001
0.21755996 -0.26388165 1.723
0.26900056 -0.26388165 1.723
0.43951896 -0.26127806 1.7060001
0.46787444 -0.26005286 1.6980001
0.69430876 -0.26005286 1.6980001
0.80780554 -0.25744927 1.6810001
-0.14527608 -0.25927711 1.715
-0.11455502 -0.25927711 1.715
-0.097487763 -0.25927711 1.715
-0.032784395 -0.26048657 1.723
0.16611934 -0.26048657 1.723
0.20041308 -0.26048657 1.723
0.22679016 -0.25927711 1.715
0.31866771 -0.26184723 1.7320001
0.38380894 -0.25927711 1.715
0.57496226 -0.25927711 1.715
0.58861607 -0.25927711 1.715
0.72134864 -0.25791648 1.7060001
0.77769351 -0.25413695 1.6810001
0.81549418 -0.25549757 1.6900001
-0.2351175 -0.25709149 1.723
-0.019066894 -0.25709149 1.723
0.059531026 -0.25589779 1.715
0.076598279 -0.25589779 1.715
0.097078994 -0.25589779 1.715
0.20972291 -0.25589779 1.715
0.26433814 -0.25589779 1.715
0.29108942 -0.25843441 1.7320001
0.33943409 -0.25589779 1.715
0.36142159 -0.2545549 1.7060001
0.39537695 -0.2545549 1.7060001
0.40895912 -0.2545549 1.7060001
0.44421712 -0.2533612 1.6980001
0.49491137 -0.2533612 1.6980001
0.51518905 -0.2533612 1.6980001
0.54898524 -0.2533612 1.6980001
0.63685524 -0.2533612 1.6980001
-0.18118902 -0.25502157 1.7320001
-0.15361072 -0.25502157 1.7320001
0.039437402 -0.25502157 1.7320001
0.15852113 -0.25251848 1.715
0.59571373 -0.25119331 1.7060001
0.60226989 -0.25251848 1.715
0.72134566 -0.25001538 1.6980001
0.74511743 -0.25119331 1.7060001
0.76209509 -0.25119331 1.7060001
0.76840246 -0.24883746 1.6900001
-0.16395257 -0.25160876 1.7320001
0.011797476 -0.2503013 1.723
0.17558838 -0.24913915 1.715
0.33245686 -0.25160876 1.7320001
0.35130554 -0.2503013 1.723
0.41646367 -0.2503013 1.723
0.47938561 -0.24913915 1.715
0.58520263 -0.24913915 1.715
0.62957746 -0.24913915 1.715
0.67395234 -0.24913915 1.715
0.7281397 -0.24783173 1.7060001
0.75514179 -0.24666956 1.6980001
0.78893799 -0.24666956 1.6980001
0.80583608 -0.24666956 1.6980001
-0.22255647 -0.24819593 1.7320001
-0.19497816 -0.24819593 1.7320001
-0.056526337 -0.24575983 1.715
-0.043297507 -0.24819593 1.7320001
0.046091221 -0.24690624 1.723
0.23703052 -0.24575983 1.715
0.28074756 -0.24819593 1.7320001
0.38216993 -0.24690624 1.723
0.40428966 -0.24575983 1.715
0.42933235 -0.24447013 1.7060001
0.50669324 -0.24575983 1.715
0.557895 -0.24575983 1.715
0.57154882 -0.24575983 1.715
0.63981783 -0.24575983 1.715
0.77849352 -0.24217734 1.6900001
-0.22482938 -0.24351114 1.723
-0.17681813 -0.24351114 1.723
-0.15440892 -0.24605508 1.7410001
-0.087654389 -0.24351114 1.723
-0.081217669 -0.24478312 1.7320001
0.063238092 -0.24351114 1.723
0.073910281 -0.24478312 1.7320001
0.26351112 -0.24478312 1.7320001
0.27242994 -0.24351114 1.723
0.43951896 -0.24110855 1.7060001
0.53400081 -0.24238051 1.715
0.56515384 -0.24110855 1.7060001
0.58213156 -0.24110855 1.7060001
0.65004236 -0.24110855 1.7060001
0.78246832 -0.24110855 1.7060001
0.79531199 -0.23884727 1.6900001
-0.23880187 -0.24387875 1.7500001
-0.19739437 -0.24011606 1.723
-0.11224326 -0.24137031 1.7320001
0.11183045 -0.24137031 1.7320001
0.12561961 -0.24137031 1.7320001
0.25871244 -0.24011606 1.723
0.32729992 -0.24011606 1.723
0.35658789 -0.24137031 1.7320001
0.41863906 -0.24137031 1.7320001
0.45761618 -0.24011606 1.723
0.48026544 -0.23774697 1.7060001
0.50063866 -0.23774697 1.7060001
0.53798956 -0.23774697 1.7060001
0.66680807 -0.24011606 1.723
0.67381108 -0.23774697 1.7060001
0.68419272 -0.23900118 1.715
0.72174066 -0.23900118 1.715
0.79265493 -0.23774697 1.7060001
0.81981927 -0.23774697 1.7060001
-0.23064335 -0.23919398 1.7410001
-0.21454126 -0.23672098 1.723
-0.046501894 -0.23672098 1.723
-0.036402933 -0.23795748 1.7320001
0.076955594 -0.23672098 1.723
0.1531979 -0.23795748 1.7320001
0.39106077 -0.23795748 1.7320001
0.60590035 -0.23438537 1.7060001
0.69078881 -0.23438537 1.7060001
0.78555834 -0.23328626 1.6980001
0.81259531 -0.23328626 1.6980001
-0.19599134 -0.23576343 1.7410001
-0.157058 -0.23454466 1.7320001
-0.10480126 -0.23332588 1.723
0.10439059 -0.23332588 1.723
0.33758804 -0.23332588 1.723
0.49876866 -0.23332588 1.723
0.51761633 -0.23102379 1.7060001
0.56735617 -0.23332588 1.723
0.70125997 -0.23224254 1.715
0.7247442 -0.23102379 1.7060001
-0.20638694 -0.23233287 1.7410001
-0.17173493 -0.23233287 1.7410001
-0.098965704 -0.23233287 1.7410001
-0.088570103 -0.23233287 1.7410001
0.12496684 -0.2299308 1.723
0.18422349 -0.23113184 1.7320001
0.23593281 -0.23113184 1.7320001
0.26834559 -0.23233287 1.7410001
0.53306246 -0.2299308 1.723
0.66337866 -0.2299308 1.723
0.70437098 -0.22766221 1.7060001
0.79000974 -0.22886322 1.715
-0.22255647 -0.22771902 1.7320001
-0.022613779 -0.22771902 1.7320001
0.018851126 -0.22890233 1.7410001
0.21524908 -0.22771902 1.7320001
0.22441871 -0.22653572 1.723
0.24842434 -0.22653572 1.723
0.31685838 -0.22890233 1.7410001
0.3307192 -0.22890233 1.7410001
0.36845243 -0.22653572 1.723
0.39450806 -0.22771902 1.7320001
0.43842417 -0.22548389 1.715
0.47255871 -0.22548389 1.715
0.51934493 -0.22653572 1.723
0.6325143 -0.22653572 1.723
0.64623183 -0.22653572 1.723
0.73832631 -0.22430061 1.7060001
-0.19352138 -0.22663732 1.7500001
-0.13292699 -0.2243062 1.7320001
-0.11975691 -0.22547176 1.7410001
-0.095006824 -0.2243062 1.7320001
-0.067078136 -0.22314064 1.723
-0.036781251 -0.22663732 1.7500001
-0.0019400811 -0.22547176 1.7410001
0.095085546 -0.22547176 1.7410001
0.11241155 -0.22547176 1.7410001
0.16438957 -0.22547176 1.7410001
0.20145993 -0.2243062 1.7320001
0.37382433 -0.2243062 1.7320001
0.43242821 -0.2243062 1.7320001
0.45207798 -0.22210458 1.715
0.61536741 -0.22314064 1.723
0.68738431 -0.22314064 1.723
0.7319662 -0.22314064 1.723
0.76611555 -0.22210458 1.715
0.81390387 -0.22210458 1.715
-0.20745385 -0.22318904 1.7500001
-0.16739987 -0.22089338 1.7320001
-0.10879597 -0.22089338 1.7320001
-0.0053773397 -0.22089338 1.7320001
0.13525496 -0.21974555 1.723
0.27730027 -0.22089338 1.7320001
0.28567159 -0.22204122 1.7410001
0.35844082 -0.22204122 1.7410001
0.52717394 -0.21872526 1.715
-0.22835253 -0.21974075 1.7500001
-0.20292173 -0.21861066 1.7410001
-0.077770382 -0.21748057 1.7320001
-0.026196487 -0.21861066 1.7410001
-0.012399453 -0.21974075 1.7500001
0.02909554 -0.21748057 1.7320001
0.03964233 -0.21861066 1.7410001
0.16698705 -0.21748057 1.7320001
0.18669559 -0.21635047 1.723
0.25316924 -0.21748057 1.7320001
0.4679043 -0.21635047 1.723
0.50137395 -0.21748057 1.7320001
0.54082775 -0.21534593 1.715
0.55020934 -0.21635047 1.723
0.58178914 -0.21534593 1.715
0.63981783 -0.21534593 1.715
0.67736584 -0.21534593 1.715
0.70453119 -0.21635047 1.723
0.7586996 -0.21421584 1.7060001
0.80963266 -0.21421584 1.7060001
-0.18213053 -0.21518011 1.7410001
-0.12258513 -0.21406774 1.7320001
-0.10644353 -0.21629246 1.7500001
-0.063981235 -0.21406774 1.7320001
0.018948574 -0.21629246 1.7500001
0.087699436 -0.21406774 1.7320001
0.11183045 -0.21406774 1.7320001
0.20384246 -0.21295539 1.723
0.31339321 -0.21518011 1.7410001
0.33245686 -0.21406774 1.7320001
0.36003518 -0.21406774 1.7320001
0.3688364 -0.21518011 1.7410001
0.37874055 -0.21295539 1.723
0.39245805 -0.21295539 1.723
0.42675179 -0.21295539 1.723
0.44046929 -0.21295539 1.723
0.48758483 -0.21406774 1.7320001
0.56049746 -0.21295539 1.723
0.77907282 -0.21085426 1.7060001
0.79944605 -0.21085426 1.7060001
-0.1726227 -0.21284418 1.7500001
-0.14824091 -0.21284418 1.7500001
-0.05419682 -0.21284418 1.7500001
-0.0054052821 -0.21174955 1.7410001
0.015385924 -0.21174955 1.7410001
0.042884689 -0.21065493 1.7320001
0.2488341 -0.21284418 1.7500001
0.29453671 -0.21065493 1.7320001
0.35151041 -0.21174955 1.7410001
0.52895224 -0.21065493 1.7320001
0.54274142 -0.21065493 1.7320001
0.65305459 -0.21065493 1.7320001
0.72544765 -0.21065493 1.7320001
0.75254244 -0.20956029 1.723
-0.12322211 -0.20831901 1.7410001
-0.08206173 -0.20939589 1.7500001
0.064229064 -0.20939589 1.7500001
0.14013316 -0.20831901 1.7410001
0.21636759 -0.20831901 1.7410001
0.25928345 -0.20939589 1.7500001
0.40348843 -0.20831901 1.7410001
0.50562739 -0.20616521 1.723
0.6599493 -0.20616521 1.723
0.68052554 -0.20616521 1.723
0.7113899 -0.20616521 1.723
-0.068129279 -0.20594759 1.7500001
-0.046987697 -0.20488845 1.7410001
-0.019465277 -0.20700677 1.7590001
0.025914803 -0.20594759 1.7500001
0.2544848 -0.20488845 1.7410001
0.38962761 -0.20488845 1.7410001
0.39795533 -0.20382929 1.7320001
0.43467522 -0.20488845 1.7410001
0.46000651 -0.20382929 1.7320001
0.46932724 -0.20488845 1.7410001
0.4953393 -0.20277013 1.723
0.56981808 -0.20488845 1.7410001
0.59060925 -0.20488845 1.7410001
0.60447007 -0.20488845 1.7410001
0.63926548 -0.20382929 1.7320001
0.72510743 -0.20277013 1.723
0.76283056 -0.20277013 1.723
0.80398303 -0.20277013 1.723
-0.18401356 -0.20354074 1.7590001
-0.043972466 -0.20354074 1.7590001
0.0084555224 -0.2014579 1.7410001
0.081224747 -0.2014579 1.7410001
0.0990602 -0.20249932 1.7500001
0.14285605 -0.20041648 1.7320001
0.1722056 -0.20249932 1.7500001
0.19801265 -0.20041648 1.7320001
0.21869637 -0.20041648 1.7320001
0.30804706 -0.20249932 1.7500001
0.38071889 -0.20041648 1.7320001
0.54335058 -0.19937503 1.723
0.63219166 -0.2014579 1.7410001
0.67377412 -0.2014579 1.7410001
0.73234224 -0.20041648 1.7320001
0.74563485 -0.19844933 1.715
-0.20501973 -0.20007472 1.7590001
-0.17351048 -0.20007472 1.7590001
-0.14054812 -0.19802734 1.7410001
-0.074709296 -0.19802734 1.7410001
0.068060406 -0.20007472 1.7590001
0.11995889 -0.19905102 1.7500001
0.19310428 -0.19905102 1.7500001
0.27321592 -0.19905102 1.7500001
0.42427963 -0.19802734 1.7410001
0.53306246 -0.19597995 1.723
0.58066154 -0.19700365 1.7320001
0.6254763 -0.19700365 1.7320001
-0.17610581 -0.19560273 1.7500001
-0.11049198 -0.19660869 1.7590001
0.11241155 -0.1945968 1.7410001
0.12973756 -0.1945968 1.7410001
0.14085758 -0.19560273 1.7500001
0.16175626 -0.19560273 1.7500001
0.20703673 -0.19560273 1.7500001
0.27874118 -0.1945968 1.7410001
0.41519177 -0.19359083 1.7320001
0.52130526 -0.1945968 1.7410001
0.59100342 -0.19359083 1.7320001
0.70131665 -0.19359083 1.7320001
0.75940114 -0.19258487 1.723
-0.21902382 -0.19314268 1.7590001
-0.21093696 -0.19215445 1.7500001
-0.10296042 -0.19215445 1.7500001
0.03114849 -0.16459401 1.4990001
0.16785477 -0.19116624 1.7410001
0.23715879 -0.19116624 1.7410001
0.30299759 -0.19116624 1.7410001
0.35332754 -0.19215445 1.7500001
0.3707431 -0.19215445 1.7500001
0.54677993 -0.18918979 1.723
0.63581818 -0.19017801 1.7320001
0.7319662 -0.18918979 1.723
0.81770056 -0.18918979 1.723
-0.096487872 -0.18967666 1.7590001
-0.068479657 -0.18967666 1.7590001
0.36190602 -0.18773569 1.7410001
0.49704885 -0.18773569 1.7410001
0.65994918 -0.18676519 1.7320001
0.69118959 -0.18870616 1.7500001
0.72575212 -0.18773569 1.7410001
-0.2213863 -0.18525788 1.7500001
-0.12734222 -0.18525788 1.7500001
-0.092511073 -0.18525788 1.7500001
0.25011382 -0.18621063 1.7590001
0.2606169 -0.18621063 1.7590001
0.28512409 -0.18621063 1.7590001
0.2991282 -0.18621063 1.7590001
0.34457999 -0.18430513 1.7410001
0.37264976 -0.18621063 1.7590001
0.41254047 -0.18525788 1.7500001
0.47034839 -0.18335237 1.7320001
0.52205765 -0.18335237 1.7320001
0.57972997 -0.18525788 1.7500001
0.63545978 -0.18525788 1.7500001
0.70163894 -0.18525788 1.7500001
-0.20958765 -0.18367964 1.7680001
-0.13779156 -0.18180959 1.7500001
-0.057679936 -0.18180959 1.7500001
0.0073141968 -0.15646015 1.506
0.019380979 -0.1570835 1.5120001
0.12407684 -0.18274461 1.7590001
0.14013316 -0.18087459 1.7410001
0.15052876 -0.18087459 1.7410001
0.18709533 -0.18274461 1.7590001
0.21983278 -0.18087459 1.7410001
0.27321592 -0.18180959 1.7500001
0.32032359 -0.18087459 1.7410001
0.38962761 -0.18087459 1.7410001
0.42647293 -0.18180959 1.7500001
0.45085472 -0.18180959 1.7500001
0.72889495 -0.17993955 1.7320001
-0.19801767 -0.1792786 1.7590001
-0.14824091 -0.1783613 1.7500001
-0.075095505 -0.1783613 1.7500001
-0.010713127 -0.15410417 1.5120001
0.046066169 -0.15277919 1.4990001
0.22910766 -0.1792786 1.7590001
0.25580034 -0.1783613 1.7500001
0.36214668 -0.1792786 1.7590001
0.53170085 -0.17744403 1.7410001
0.67377406 -0.1783613 1.7500001
0.71208829 -0.1783613 1.7500001
0.73961294 -0.17744403 1.7410001
-0.17439824 -0.17671213 1.7680001
-0.1005005 -0.17671213 1.7680001
0.054539647 -0.14852613 1.4860001
0.17659226 -0.17581257 1.7590001
0.28658295 -0.17671213 1.7680001
0.41466209 -0.17581257 1.7590001
0.46586204 -0.17401347 1.7410001
0.55308324 -0.17311391 1.7320001
0.58321309 -0.17491302 1.7500001
0.60062861 -0.17491302 1.7500001
0.6180442 -0.17491302 1.7500001
0.62526131 -0.17401347 1.7410001
0.66332471 -0.17491302 1.7500001
0.74268407 -0.17311391 1.7320001
-0.20852076 -0.17234655 1.7590001
-0.18943344 -0.17411019 1.7770001
-0.17000945 -0.17234655 1.7590001
-0.10699096 -0.17234655 1.7590001
-0.028902784 -0.14883138 1.5190001
0.16258815 -0.17234655 1.7590001
0.16872248 -0.17146473 1.7500001
0.2081015 -0.17234655 1.7590001
0.2209692 -0.17146473 1.7500001
0.29212615 -0.17234655 1.7590001
0.30417764 -0.17322837 1.7680001
0.35164359 -0.17234655 1.7590001
0.35681066 -0.17146473 1.7500001
0.38815868 -0.17146473 1.7500001
0.40905735 -0.17146473 1.7500001
0.45200124 -0.17058292 1.7410001
0.53239954 -0.1697011 1.7320001
0.61140049 -0.17058292 1.7410001
0.68070447 -0.17058292 1.7410001
-0.20358086 -0.1706087 1.7770001
-0.17882288 -0.1706087 1.7770001
-0.16384143 -0.16974461 1.7680001
-0.14976567 -0.16974461 1.7680001
-0.065311097 -0.16974461 1.7680001
-0.019911094 -0.14641434 1.5250001
0.01318541 -0.14324602 1.4920001
0.02200537 -0.14266996 1.4860001
0.074281216 -0.14084579 1.4670001
0.18962117 -0.16801643 1.7500001
0.20355363 -0.16801643 1.7500001
0.26546931 -0.16974461 1.7680001
0.27812204 -0.16888052 1.7590001
0.3236354 -0.16888052 1.7590001
0.34636131 -0.16801643 1.7500001
0.38863224 -0.16974461 1.7680001
0.43343917 -0.16801643 1.7500001
0.46367648 -0.16888052 1.7590001
0.49961832 -0.16801643 1.7500001
0.51355076 -0.16801643 1.7500001
0.59407449 -0.16715236 1.7410001
0.71535653 -0.16715236 1.7410001
0.72253764 -0.16801643 1.7500001
-0.096487872 -0.16541451 1.7590001
-0.085984796 -0.16541451 1.7590001
-0.071980685 -0.16541451 1.7590001
0.049049702 -0.14096437 1.4990001
0.13737446 -0.16456816 1.7500001
0.15130691 -0.16456816 1.7500001
0.31501329 -0.16456816 1.7500001
0.32894573 -0.16456816 1.7500001
0.36751857 -0.16626085 1.7680001
0.47417957 -0.16541451 1.7590001
0.53444946 -0.16456816 1.7500001
0.56288767 -0.16372181 1.7410001
0.66337848 -0.16372181 1.7410001
-0.22366342 -0.16277711 1.7680001
-0.20606871 -0.16277711 1.7680001
-0.15600534 -0.16194849 1.7590001
-0.044197451 -0.16277711 1.7680001
0.0043339259 -0.13920757 1.5120001
0.063668668 -0.13736621 1.4920001
0.074939467 -0.13626137 1.48
0.30963129 -0.16194849 1.7590001
0.39365593 -0.16194849 1.7590001
0.44267032 -0.16194849 1.7590001
0.49518573 -0.16194849 1.7590001
0.50397927 -0.16029125 1.7410001
0.55186504 -0.16111986 1.7500001
0.5792104 -0.16194849 1.7590001
-0.12223322 -0.16010423 1.7770001
-0.058273215 -0.15929335 1.7680001
-0.0047160387 -0.13685893 1.5190001
0.094332732 -0.13163325 1.4610001
0.18101473 -0.15929335 1.7680001
0.31825343 -0.15929335 1.7680001
0.33584812 -0.15929335 1.7680001
0.34640494 -0.15929335 1.7680001
0.41326481 -0.15929335 1.7680001
0.46478719 -0.15767157 1.7500001
0.54209644 -0.15686071 1.7410001
0.62822479 -0.15848246 1.7590001
0.64923096 -0.15848246 1.7590001
0.65973401 -0.15848246 1.7590001
-0.218831 -0.1573959 1.7860001
-0.1356899 -0.1558096 1.7680001
-0.10699096 -0.15501644 1.7590001
-0.028902784 -0.13386582 1.5190001
0.019124618 -0.13148637 1.4920001
0.13457993 -0.15501644 1.7590001
0.14230639 -0.1558096 1.7680001
0.3236354 -0.15501644 1.7590001
0.34114051 -0.15501644 1.7590001
0.56579751 -0.15422329 1.7500001
0.61071968 -0.15501644 1.7590001
-0.17439824 -0.15232584 1.7680001
-0.14345434 -0.15310125 1.7770001
0.027807958 -0.12751257 1.48
0.15208507 -0.15155043 1.7590001
0.36914873 -0.15155043 1.7590001
0.49613521 -0.150775 1.7500001
0.53019601 -0.15155043 1.7590001
0.57972997 -0.150775 1.7500001
0.6389429 -0.150775 1.7500001
0.68763489 -0.1499996 1.7410001
0.6946727 -0.150775 1.7500001
-0.22480197 -0.14959978 1.7770001
-0.19039287 -0.15035746 1.7860001
-0.090401538 -0.14959978 1.7770001
-0.072717272 -0.14959978 1.7770001
0.010174723 -0.12510143 1.4860001
0.17659226 -0.1480844 1.7590001
0.20212838 -0.14884208 1.7680001
0.24435566 -0.14884208 1.7680001
0.2606169 -0.1480844 1.7590001
0.41326481 -0.14884208 1.7680001
0.4906815 -0.14884208 1.7680001
0.51703387 -0.14732672 1.7500001
0.53444946 -0.14732672 1.7500001
0.60062861 -0.14732672 1.7500001
0.65287536 -0.14732672 1.7500001
-0.17617379 -0.14683823 1.7860001
-0.14624673 -0.14535832 1.7680001
0.21160252 -0.14461838 1.7590001
0.21972308 -0.14535832 1.7680001
0.23610972 -0.14461838 1.7590001
0.26682067 -0.14609829 1.7770001
0.28450492 -0.14609829 1.7770001
0.31987345 -0.14609829 1.7770001
0.33402088 -0.14609829 1.7770001
0.35877886 -0.14609829 1.7770001
0.50218779 -0.14461838 1.7590001
0.51883304 -0.14535832 1.7680001
0.58217394 -0.14535832 1.7680001
0.63847697 -0.14535832 1.7680001
0.65973401 -0.14461838 1.7590001
-0.23660484 -0.14331901 1.7860001
-0.093462616 -0.14187457 1.7680001
-0.050974522 -0.14115235 1.7590001
0.2951155 -0.1425968 1.7770001
0.5962497 -0.14187457 1.7680001
-0.13351659 -0.13979979 1.7860001
-0.11457627 -0.13839082 1.7680001
-0.090859398 -0.13979979 1.7860001
-0.080195099 -0.13979979 1.7860001
0.13595709 -0.13909531 1.7770001
0.30417764 -0.13839082 1.7680001
0.31473446 -0.13839082 1.7680001
0.39715695 -0.13768634 1.7590001
0.54838192 -0.13698186 1.7500001
0.60721862 -0.13768634 1.7590001
0.62472379 -0.13768634 1.7590001
0.64903378 -0.13839082 1.7680001
0.6598416 -0.13698186 1.7500001
-0.20921569 -0.13696729 1.7950001
-0.15129043 -0.13628057 1.7860001
0.057729464 -0.11384691 1.4920001
0.12823063 -0.13490707 1.7680001
0.16342004 -0.13490707 1.7680001
0.38353685 -0.13559382 1.7770001
0.37253606 -0.10316423 1.3520001
0.53719807 -0.13422032 1.7590001
0.58867437 -0.13559382 1.7770001
0.58621246 -0.13422032 1.7590001
-0.10507847 -0.13276133 1.7860001
-0.022946378 -0.11336004 1.5250001
-0.11515951 -0.12859084 1.7770001
-0.07979098 -0.12859084 1.7770001
0.039590836 -0.10709872 1.48
0.074281216 -0.10615799 1.4670001
0.27883634 -0.12924211 1.7860001
0.35398537 -0.09942814 1.3740001
0.55754131 -0.12793955 1.7680001
0.56870735 -0.12728827 1.7590001
0.60282177 -0.12859084 1.7770001
0.61696917 -0.12859084 1.7770001
0.060210872 -0.10418245 1.48
0.11621769 -0.1069278 1.5190001
0.18453367 -0.12445579 1.7680001
0.23145214 -0.12508935 1.7770001
0.28950065 -0.12572289 1.7860001
0.31438401 -0.12572289 1.7860001
0.32860309 -0.12572289 1.7860001
0.36742851 -0.095946409 1.363
0.54069912 -0.12382225 1.7590001
0.57806379 -0.12508935 1.7770001
0.58921182 -0.12445579 1.7680001
-0.2294953 -0.12220366 1.7860001
-0.15205282 -0.12281946 1.7950001
0.033972636 -0.10208727 1.4920001
0.30016494 -0.12220366 1.7860001
-0.20461193 -0.11868443 1.7860001
-0.18420693 -0.11928251 1.7950001
-0.094889931 -0.11928251 1.7950001
-0.016665552 -0.10007769 1.506
0.077516817 -0.097884759 1.473
0.2126852 -0.11748829 1.7680001
0.26195037 -0.11748829 1.7680001
0.3092629 -0.11808637 1.7770001
0.32341033 -0.11808637 1.7770001
0.53290874 -0.11748829 1.7680001
-0.16277085 -0.11574554 1.7950001
-0.11989869 -0.11574554 1.7950001
0.02200537 -0.095820554 1.4860001
0.096786283 -0.096658818 1.4990001
0.12528771 -0.097948462 1.5190001
0.23973392 -0.11516521 1.7860001
0.24435566 -0.11400453 1.7680001
0.37481505 -0.11516521 1.7860001
0.32436314 -0.085825808 1.3310001
0.56745321 -0.11458488 1.7770001
-0.23422445 -0.11220859 1.7950001
-0.19849765 -0.11220859 1.7950001
-0.1734889 -0.11220859 1.7950001
-0.11574277 -0.11164599 1.7860001
-0.10560797 -0.11220859 1.7950001
-0.040645298 -0.094142698 1.506
0.045482274 -0.092517391 1.48
0.13373858 -0.094517767 1.5120001
0.18641241 -0.11164599 1.7860001
0.35704121 -0.11164599 1.7860001
0.3870737 -0.11108339 1.7770001
-0.18683811 -0.10812677 1.7860001
-0.16550949 -0.10812677 1.7860001
0.0013069953 -0.090327621 1.4920001
0.03694224 -0.090327621 1.4920001
0.071993746 -0.089601129 1.48
0.19707671 -0.10812677 1.7860001
0.22437844 -0.1075819 1.7770001
0.24559955 -0.1075819 1.7770001
0.30016494 -0.10812677 1.7860001
0.32860309 -0.10812677 1.7860001
0.58099151 -0.10812677 1.7860001
0.2638694 -0.036082614 0.59600002
-0.091770448 -0.097989038 1.6730001
-0.066455066 -0.08668486 1.48
0.063412629 -0.087036282 1.4860001
0.34297329 -0.076786384 1.3110001
0.37571299 -0.077079244 1.3160001
0.57161707 -0.10355327 1.7680001
-0.13486223 -0.10210712 1.8040001
-0.013314129 -0.083032787 1.4670001
0.12735718 -0.083372399 1.473
0.18193619 -0.10057892 1.7770001
0.24597324 -0.096560284 1.7060001
0.34993169 -0.10108832 1.7860001
0.31906483 -0.07533513 1.3310001
0.56037951 -0.10057892 1.7770001
0.59521061 -0.10108832 1.7860001
-0.03699787 -0.08085233 1.48
0.23130132 -0.092761658 1.6980001
-0.18688637 -0.088994555 1.6900001
-0.16247065 -0.088520624 1.6810001
-0.11840931 -0.088099353 1.6730001
-0.048154507 -0.076935537 1.4610001
0.30832586 -0.09120626 1.7320001
0.38619018 -0.069299906 1.3160001
-0.17343159 -0.085664496 1.6900001
-0.1336972 -0.086070009 1.6980001
-0.060277175 -0.07466498 1.473
0.099325962 -0.073448442 1.4490001
0.10596434 -0.074056707 1.4610001
0.2425777 -0.086475521 1.7060001
0.27730328 -0.085664496 1.6900001
0.3298139 -0.066960245 1.3210001
0.34558263 -0.066453345 1.3110001
0.24933627 -0.03046412 0.60100001
-0.21379592 -0.082334436 1.6900001
-0.20466912 -0.082724184 1.6980001
-0.10893818 -0.081895977 1.6810001
-0.036522895 -0.071177885 1.4610001
-0.021983383 -0.071177885 1.4610001
0.045082767 -0.071470186 1.4670001
0.19459726 -0.081506222 1.6730001
0.20666572 -0.082334436 1.6900001
0.22792171 -0.082724184 1.6980001
0.25276431 -0.083113939 1.7060001
-0.15577909 -0.07858365 1.6810001
-0.1223213 -0.07858365 1.6810001
-0.071124427 -0.068018556 1.455
-0.010224234 -0.067457579 1.4430001
0.082021847 -0.067738079 1.4490001
0.11374605 -0.067738079 1.4490001
0.2201205 -0.079004377 1.6900001
0.26171786 -0.079378366 1.6980001
0.31015307 -0.080547065 1.723
0.30949527 -0.062969759 1.3470001
0.32436314 -0.062221792 1.3310001
0.53630763 -0.079004377 1.6900001
0.25299287 -0.02758141 0.59000003
-0.21265735 -0.075271323 1.6810001
-0.18743572 -0.074554875 1.6650001
-0.10078682 -0.074196659 1.6570001
0.093945324 -0.06515155 1.455
0.26721221 -0.075674318 1.6900001
0.54014313 -0.075271323 1.6810001
0.55648983 -0.075674318 1.6900001
-0.19313113 -0.070931621 1.6570001
0.01849653 -0.061770868 1.4430001
0.23567715 -0.071958996 1.6810001
0.25712112 -0.072344258 1.6900001
0.2765151 -0.071274079 1.6650001
0.32526323 -0.068962477 1.6110001
0.31871697 -0.057875406 1.3520001
0.36123875 -0.05612031 1.3110001
-0.21164531 -0.068319976 1.6730001
-0.15609573 -0.06733989 1.649
-0.1331211 -0.06733989 1.649
0.012858426 -0.05941755 1.455
0.096042596 -0.058927506 1.4430001
0.14258623 -0.059172526 1.4490001
0.2114982 -0.06733989 1.649
0.2821711 -0.06546139 1.603
-0.20632318 -0.064401545 1.6570001
-0.18235244 -0.064090617 1.649
-0.16344903 -0.064401545 1.6570001
-0.058804005 -0.055850949 1.437
-0.041469324 -0.05561775 1.4310001
0.029860158 -0.055850949 1.437
0.052741233 -0.055850949 1.437
0.20263024 -0.064401545 1.6570001
0.27118397 -0.065023415 1.6730001
0.2931987 -0.062613696 1.6110001
0.33808908 -0.062613696 1.6110001
0.34290725 -0.051731117 1.3310001
0.37856796 -0.051536784 1.3260001
0.50517654 -0.06471248 1.6650001
0.55018044 -0.065334342 1.6810001
-0.13841465 -0.060287908 1.6340001
-0.09701813 -0.060841344 1.649
0.13105017 -0.053462163 1.4490001
0.18030423 -0.060287908 1.6340001
0.20957433 -0.060287908 1.6340001
0.30131429 -0.059144132 1.603
0.31407642 -0.059144132 1.603
0.49945125 -0.06113651 1.6570001
0.54423231 -0.061726846 1.6730001
-0.20204496 -0.057592072 1.649
-0.15068223 -0.056788787 1.626
0.0070665046 -0.050816536 1.455
0.11327505 -0.05039743 1.4430001
0.32013139 -0.047428764 1.358
0.32558161 -0.046660405 1.3360001
0.35475856 -0.045961898 1.3160001
-0.15960202 -0.053321198 1.618
-0.12417775 -0.053321198 1.618
-0.075543694 -0.053090513 1.6110001
-0.047363468 -0.047356341 1.437
-0.030328769 -0.047554072 1.4430001
0.21178457 -0.053584836 1.626
0.22353679 -0.05407916 1.641
0.34598175 -0.05282687 1.603
0.37188196 -0.04353356 1.3210001
0.49577084 -0.053848475 1.6340001
0.53055638 -0.05407916 1.641
-0.17010009 -0.050380886 1.626
-0.085533097 -0.050133009 1.618
-0.039268866 -0.045082524 1.455
-0.018840464 -0.044710711 1.4430001
0.032993529 -0.044896618 1.4490001
0.064985715 -0.045082524 1.455
0.090298444 -0.044710711 1.4430001
0.10552917 -0.045082524 1.455
0.13504337 -0.045268435 1.4610001
0.18175909 -0.050133009 1.618
0.1891304 -0.050380886 1.626
0.2043018 -0.050133009 1.618
0.28357932 -0.049916115 1.6110001
0.30735421 -0.050133009 1.618
0.35085469 -0.041240443 1.3310001
-0.18045612 -0.046509609 1.603
-0.13383891 -0.046944819 1.618
-0.10707387 -0.046509609 1.603
-0.021893103 -0.042215522 1.455
-0.0016080051 -0.041867353 1.4430001
0.0012745833 -0.042215522 1.455
0.24209666 -0.047409046 1.6340001
0.27136675 -0.047409046 1.6340001
-0.20468745 -0.043756634 1.618
-0.17173736 -0.043567326 1.6110001
-0.05664463 -0.039348517 1.455
0.056297835 -0.039348517 1.455
0.11663007 -0.039186254 1.4490001
0.20878886 -0.043350976 1.603
0.26434058 -0.043567326 1.6110001
0.48237956 -0.043567326 1.6110001
0.49334359 -0.04397298 1.626
0.50057751 -0.043756634 1.618
0.52075791 -0.044378638 1.641
0.53642493 -0.044594985 1.649
-0.21778731 -0.040016834 1.5960001
-0.12195206 -0.03984132 1.5890001
-0.084000058 -0.03984132 1.5890001
0.05008937 -0.036180634 1.4430001
0.076253809 -0.036331072 1.4490001
0.22793205 -0.040192347 1.603
0.24091136 -0.040769029 1.626
0.27515033 -0.040568445 1.618
-0.1320191 -0.036871996 1.5960001
-0.039430801 -0.033753123 1.4610001
0.035728987 -0.033337276 1.4430001
0.085609019 -0.033753123 1.4610001
0.19602673 -0.037033714 1.603
0.3255372 -0.031373542 1.358
0.37779376 -0.031003896 1.342
0.3867411 -0.03086528 1.3360001
-0.16704683 -0.033114322 1.567
-0.021983383 -0.030874297 1.4610001
-0.0044987095 -0.030620709 1.4490001
0.11132109 -0.030747503 1.455
0.22480384 -0.033410173 1.5810001
0.26705605 -0.033579234 1.5890001
0.33760893 -0.028127098 1.3310001
0.36410049 -0.028127098 1.3310001
0.48955572 -0.033875085 1.603
-0.20447339 -0.030026626 1.567
-0.19199787 -0.030026626 1.567
-0.1150446 -0.030294893 1.5810001
-0.080430411 -0.030294893 1.5810001
-0.041990951 -0.027765527 1.4490001
-0.010351771 -0.027995471 1.4610001
0.021635158 -0.027995471 1.4610001
0.053622086 -0.027995471 1.4610001
0.067601755 -0.027765527 1.4490001
0.13851781 -0.028110441 1.4670001
0.18308195 -0.030160761 1.5740001
0.19115204 -0.030448187 1.5890001
0.21127726 -0.030160761 1.5740001
0.27515176 -0.030294893 1.5810001
0.29717898 -0.030294893 1.5810001
0.49227718 -0.030294893 1.5810001
0.039082576 -0.025116643 1.4610001
0.12099873 -0.025219791 1.4670001
0.28603205 -0.027317142 1.5890001
0.46190223 -0.027059272 1.5740001
0.47895479 -0.027317142 1.5890001
-0.21383002 -0.023851236 1.567
-0.16319565 -0.023744689 1.5600001
0.25756806 -0.024186097 1.5890001
0.34752691 -0.02406433 1.5810001
0.48696473 -0.023957783 1.5740001
-0.17640346 -0.020763543 1.567
0.03023419 -0.019279486 1.455
0.073673598 -0.019279486 1.455
0.17602997 -0.020763543 1.567
0.19474325 -0.020763543 1.567
0.23320694 -0.020856295 1.5740001
0.32678986 -0.017914683 1.3520001
-0.121729 -0.017438967 1.5460001
-0.097552054 -0.017517926 1.5530001
-0.027913352 -0.016547842 1.4670001
0.19609438 -0.017517926 1.5530001
0.24355246 -0.017596887 1.5600001
0.28646475 -0.017754808 1.5740001
0.34285536 -0.017754808 1.5740001
-0.1315532 -0.014457818 1.5530001
-0.084804013 -0.014392651 1.5460001
-0.0074132988 -0.013545476 1.455
0.18063931 -0.014457818 1.5530001
0.34419537 -0.012437633 1.3360001
0.36812735 -0.012437633 1.3360001
-0.15793563 -0.011294961 1.539
0.10305644 -0.010722507 1.4610001
0.21270552 -0.011294961 1.539
0.24444382 -0.011346335 1.5460001
0.38313586 -0.0098491469 1.342
0.46296692 -0.011500457 1.567
0.46810371 -0.011397709 1.5530001
0.48137918 -0.011346335 1.5460001
-0.08403606 -0.008224858 1.5320001
-0.042164825 -0.0078114672 1.455
0.021635158 -0.0078436797 1.4610001
0.042162921 -0.0078758914 1.4670001
0.065521687 -0.0078758914 1.4670001
0.073977411 -0.0078436797 1.4610001
0.31959251 -0.0074034459 1.3790001
0.2585566 -0.0031353245 0.58400005
-0.11505154 -0.0052299164 1.539
0.01004463 -0.0049852422 1.4670001
0.094332732 -0.0049648522 1.4610001
0.13322076 -0.0050056316 1.473
0.18041773 -0.0051823407 1.5250001
0.25367507 -0.0052537043 1.5460001
0.29983133 -0.0052537043 1.5460001
0.31213966 -0.0052537043 1.5460001
0.12480597 -0.001740496 1.2190001
0.16459116 -0.0021688379 1.5190001
0.24223024 -0.0021873994 1.5320001
0.25933513 -0.0021774047 1.5250001
0.26477909 -0.0021973941 1.539
0.31397027 -0.0021774047 1.5250001
0.48006919 -0.0021873994 1.5320001
-0.21416935 0.00082753121 1.5250001
-0.200306 0.00082047685 1.5120001
0.047806282 0.00079280202 1.4610001
0.28361741 0.00082753121 1.5250001
0.32760832 0.00083132973 1.5320001
0.33486271 0.0007336539 1.3520001
-0.19051872 0.0037847185 1.506
-0.11975084 0.0030508952 1.2140001
0.20964238 0.0038676504 1.539
0.25137788 0.0038500589 1.5320001
0.35507232 0.0033851366 1.3470001
