# .PCD v0.7 - Point Cloud Data file format
VERSION 0.7
FIELDS x y z
SIZE 4 4 4
TYPE F F F
COUNT 1 1 1
WIDTH 1410
HEIGHT 1
VIEWPOINT 0 0 0 1 0 0 0
POINTS 1410
DATA ascii
-0.207032 0.18792969 0.84585726
-0.20392382 0.18857907 0.84800005
-0.21245717 0.19341111 0.84500015
-0.20521429 0.19072859 0.84500003
-0.20199525 0.19072859 0.84500003
-0.21084763 0.19555716 0.84500003
-0.21809049 0.20601906 0.84500003
-0.21326193 0.20789683 0.84500003
-0.21225153 0.21184961 0.84525013
-0.20843334 0.21406668 0.84500003
0.34202382 0.2116524 0.84500003
-0.21105307 0.21795923 0.84628588
-0.20708425 0.21799643 0.8453334
-0.20360477 0.21889526 0.84500003
0.34363335 0.21970001 0.84500003
-0.23418573 0.22291906 0.84500003
-0.21004286 0.22130954 0.84500003
-0.20705375 0.22245923 0.84500015
-0.23501717 0.22532573 0.84800005
-0.20843334 0.22694287 0.84500003
-0.21004286 0.23418573 0.84500003
-0.20843334 0.23338097 0.84500003
-0.23096669 0.23579526 0.84500003
-0.21197429 0.23804858 0.84500009
-0.20714572 0.23708287 0.84500009
-0.21809049 0.24062383 0.84500003
-0.21217577 0.24224626 0.84566677
-0.20838827 0.24334702 0.84700006
-0.21084762 0.24706194 0.84500015
-0.20775098 0.24720716 0.84549999
-0.21044526 0.25148812 0.84500003
-0.20843336 0.25189048 0.84500003
-0.21004286 0.2559143 0.84500003
-0.20700265 0.25779212 0.84500015
-0.20360477 0.25993812 0.84500003
-0.1987762 0.25993812 0.84500003
-0.20682383 0.26195002 0.84500003
-0.20149374 0.26173219 0.84560007
-0.1987762 0.26154763 0.84500003
-0.16980477 0.26315716 0.84500003
-0.16256192 0.26476669 0.84500003
-0.1585381 0.26476669 0.84500003
-0.16149691 0.26620883 0.84575003
-0.1585381 0.2663762 0.84500003
-0.11508096 0.26959527 0.84500003
-0.11186191 0.26959527 0.84500003
-0.10542382 0.26959527 0.84500003
-0.10059524 0.26959527 0.84500003
-0.097376198 0.26959527 0.84500003
-0.10769843 0.27098733 0.84600008
-0.10274129 0.2717413 0.84500003
-0.098180965 0.27120477 0.84500003
-0.078061908 0.2728143 0.84500003
-0.072160326 0.27388734 0.84500003
0.3418262 0.27733096 0.84650004
0.071795247 0.28367656 0.84700006
0.075108573 0.2834743 0.84800005
0.08932858 0.28408098 0.84500003
0.067949213 0.2865651 0.84600008
0.072275244 0.28649837 0.84633338
0.075556517 0.28636479 0.84700006
0.087719053 0.28569049 0.84500003
0.093352392 0.28569049 0.84500003
0.17382857 0.29132384 0.84500003
0.1774811 0.29135621 0.84542865
0.18107145 0.29132384 0.84500003
0.33397621 0.2985667 0.84500003
0.33558574 0.29776192 0.84500003
-0.0088523813 0.30339527 0.84500003
0.26959527 0.30178574 0.84500003
0.27130827 0.30142322 0.84700006
0.32834285 0.30339527 0.84500003
0.33302829 0.3021419 0.84600008
0.33612224 0.3007127 0.84500003
-0.18052383 -0.071238101 0.85000002
-0.17809525 -0.071238101 0.85000002
-0.18861906 -0.066380963 0.85000002
-0.18227784 -0.067327075 0.85171437
-0.17953619 -0.068239048 0.85300004
0.18861906 -0.068000004 0.85000002
0.19077781 -0.068269849 0.85000008
-0.18861906 -0.063952386 0.85000002
-0.1832865 -0.062715054 0.85080004
0.35624003 -0.053680003 0.85400003
0.36270735 0.018121906 0.852
0.36125374 0.022245714 0.8524
0.35946289 0.025154287 0.85200006
-0.19106479 0.057207245 0.85080004
-0.18884096 0.058355242 0.85100007
0.068320006 0.064253338 0.85400003
0.072386675 0.064253345 0.85400003
0.35459432 0.078708574 0.85200006
0.35621718 0.077085719 0.85200006
-0.19833335 0.13842858 0.85000002
-0.19880001 0.14118858 0.85200006
0.34890479 0.15947621 0.85000002
0.35380003 0.15697335 0.85400003
0.34769619 0.16187906 0.852
-0.20642859 0.18861906 0.85000002
0.3432343 0.20366858 0.85200006
0.3432343 0.20529144 0.85200006
0.34648001 0.21065335 0.85400003
-0.20843773 0.2428263 0.85160011
-0.20577335 0.24969335 0.85400003
-0.20577335 0.26108003 0.85400003
-0.20328574 0.26121211 0.85266674
-0.11116572 0.2693924 0.852
-0.10860477 0.26907715 0.85099995
-0.080520004 0.27409336 0.85400003
-0.077207632 0.2730667 0.85333341
-0.07245937 0.27361369 0.85166669
-0.068809532 0.27442858 0.85000002
0.34241337 0.27246672 0.85400003
-0.072217144 0.2750743 0.85200006
0.34187433 0.27794224 0.85333341
0.3429029 0.28241983 0.85360003
0.34566668 0.28385335 0.85400003
0.30771112 0.29307112 0.85400003
0.23668002 0.29849336 0.85400003
0.24237335 0.29849336 0.85400003
0.33590668 0.29605335 0.85400003
0.23912001 0.30012003 0.85400003
0.24237335 0.30012003 0.85400003
0.26811647 0.30335784 0.85200012
0.27225274 0.30151114 0.85333341
0.30337337 0.30337337 0.85400003
0.30565068 0.30142137 0.85400003
0.33390194 0.30225718 0.85200006
0.33265334 0.30500001 0.85400003
0.35422575 -0.052235242 0.85700005
0.35627431 -0.051480003 0.85800004
0.3636286 -0.04494286 0.85800004
0.36280131 0.017146667 0.85733336
0.3611505 0.021196192 0.85600007
0.066034287 0.064403817 0.85600007
0.063158862 0.066749714 0.85680008
0.067690484 0.066875875 0.85633343
0.07092572 0.06684953 0.85600007
0.3523505 0.15796192 0.85760003
0.34892192 0.16060191 0.85600007
0.34484574 0.2095162 0.85600007
0.34484574 0.21277717 0.85600007
0.34606385 0.21302572 0.85700005
0.33911431 0.22961716 0.85800004
0.34238291 0.22961716 0.85800004
0.3464686 0.22961716 0.85800004
0.33913082 0.23143685 0.85666674
0.34347686 0.23216128 0.85733336
0.34660798 0.23315907 0.85700005
0.3440229 0.23669526 0.85700005
0.34647623 0.23560382 0.85600007
-0.20673716 0.24187431 0.85800004
-0.20837145 0.2475943 0.85800004
-0.20673716 0.25249717 0.85800004
0.33995432 0.26984382 0.85600007
0.3440305 0.26984382 0.85600007
0.34565145 0.26557145 0.85800004
0.33995432 0.27392 0.85600007
0.34157717 0.27237946 0.85680002
0.33953431 0.27832001 0.85700005
0.34116668 0.27668858 0.85700005
0.33945033 0.28197753 0.85720009
0.34158477 0.28288764 0.85600013
0.30316001 0.28763428 0.85800004
0.3070823 0.28714404 0.85799998
0.33932433 0.28665 0.85750002
0.34116668 0.28566572 0.85700005
0.17650287 0.29172003 0.85800004
0.23758431 0.29315004 0.85799992
0.24231303 0.29453018 0.85666674
0.29989144 0.29417145 0.85800004
0.30271789 0.29309633 0.85777771
0.30661771 0.29169908 0.8565715
0.33708668 0.2930105 0.85700005
0.23370287 0.29989144 0.85800004
0.23751095 0.29770431 0.85699999
0.24189281 0.29709607 0.85600007
0.26984382 0.29756191 0.85600007
0.27168447 0.29888195 0.85666674
0.29989144 0.29744002 0.85800004
0.30305853 0.29839078 0.8577143
0.30714098 0.29756194 0.85600001
0.31133145 0.29989144 0.85800004
0.33669335 0.2991924 0.85600007
0.26837 0.30222145 0.85650003
0.27260667 0.30117431 0.85699999
0.30320269 0.30189753 0.85720009
0.30856761 0.30286098 0.85600007
0.31108955 0.30292577 0.85733336
0.3331486 0.30377591 0.85666674
0.33587813 0.30082288 0.85600007
0.30888003 0.30642858 0.85800004
-0.021948572 -0.083072864 0.86150008
-0.018838096 -0.083542861 0.86000001
-0.018881906 -0.074706674 0.86200005
0.24053906 -0.055003814 0.86200005
0.36286098 -0.055003814 0.86200005
0.36532384 -0.056645717 0.86200005
0.30128956 -0.053361908 0.86200005
0.35751718 -0.050839052 0.86100006
0.36250916 -0.051485445 0.86200011
0.36532384 -0.051720005 0.86200005
0.30128956 -0.045152385 0.86200005
0.35765526 -0.04945334 0.86066669
0.36270446 -0.0473607 0.86145455
0.30183685 -0.042963177 0.86200011
0.36264908 -0.043485243 0.86150002
0.36532384 -0.028733335 0.86200005
0.36120003 0.013923811 0.86000001
0.36179894 0.016760003 0.86142862
0.35915905 0.023780001 0.86100006
0.36104727 0.021816002 0.86120003
0.35915905 0.025420003 0.86100006
0.36120003 0.025390478 0.86000001
0.34911191 0.15753001 0.86150002
0.35095906 0.15826002 0.86100006
0.34788144 0.16081287 0.86150002
0.34400004 0.21295241 0.86000001
0.34439906 0.21566001 0.86100006
0.34616828 0.2180997 0.86200011
0.34371179 0.22394669 0.86133337
0.34644192 0.22247811 0.86200005
0.34350023 0.22774172 0.86079997
0.3458997 0.22722667 0.86133337
0.34154287 0.23342858 0.86000001
0.33962101 0.23634097 0.86066675
0.34194764 0.23652351 0.86033338
0.34890479 0.23889716 0.86200005
-0.20663907 0.24435906 0.86100006
0.34890479 0.24053906 0.86200005
-0.2070248 0.24756302 0.86114287
-0.20441715 0.24874859 0.86200005
0.34315813 0.24546477 0.86200005
-0.20605907 0.2503905 0.86200005
-0.20441715 0.2503905 0.86200005
-0.14038287 0.25285333 0.86200005
-0.13756818 0.25226697 0.86200011
-0.13730429 0.25716335 0.86200005
-0.15351811 0.26352572 0.86200005
-0.14038287 0.26188383 0.86200005
-0.13742743 0.26089868 0.86200011
-0.082095243 0.26352572 0.86200005
-0.077383496 0.26332065 0.86133337
-0.074620008 0.26403904 0.86100006
-0.1485924 0.26516762 0.86200005
-0.086200006 0.26763052 0.86200005
-0.082627304 0.26701084 0.8608889
-0.078225039 0.26727867 0.86200011
-0.015598096 0.26598859 0.86200005
-0.013956191 0.26680955 0.86200005
0.34386998 0.26771542 0.86114293
-0.086200006 0.27091432 0.86200005
-0.082544774 0.27128384 0.86057156
-0.078104772 0.27162382 0.86100006
-0.073885724 0.27337715 0.86200005
0.11288098 0.27132478 0.86200005
0.11575429 0.27009335 0.86200005
0.34192666 0.27132475 0.86200005
0.11278216 0.27744454 0.86125004
0.17486286 0.27994478 0.86200005
0.17807716 0.2790156 0.86166668
0.18122001 0.27879906 0.86100006
0.3393372 0.27808893 0.86133337
0.34069526 0.27501908 0.86200005
0.17420612 0.28355697 0.86200011
0.17805399 0.28308296 0.86155558
0.18143049 0.28240764 0.86200005
0.23889716 0.28487051 0.86200005
0.3386429 0.28363907 0.86200005
0.17397493 0.28804228 0.86166668
0.17783859 0.28778097 0.86150002
0.18143049 0.2881543 0.86200005
0.23370001 0.28863907 0.86100006
0.23739216 0.28827551 0.86175001
0.24136001 0.2897962 0.86200005
0.30339909 0.28782001 0.86100006
0.30550477 0.28666669 0.86000001
0.33808196 0.28755772 0.86120003
0.17363811 0.29076192 0.86000001
0.1769143 0.29076192 0.86000001
0.23360954 0.29262799 0.86066675
0.23679589 0.292514 0.86033344
0.24264883 0.29244885 0.86075008
0.24546477 0.29472193 0.86200005
0.30222857 0.29158098 0.86000001
0.30550477 0.29158098 0.86000001
0.33741146 0.29390097 0.86200005
0.23288193 0.29777947 0.86040014
0.23543112 0.29777652 0.86133337
0.26895908 0.29930001 0.86100006
0.29847971 0.29765874 0.861
0.30422002 0.29848099 0.86100006
0.31199497 0.2988686 0.86133337
0.33662862 0.29731435 0.86000001
0.2694667 0.30059049 0.86000001
0.2989524 0.30059049 0.86000001
0.30082351 0.30246416 0.86066669
0.33197019 0.30410224 0.86066669
0.33631682 0.30183685 0.86200011
-0.1514543 -0.093520962 0.86900002
-0.1473162 -0.091865733 0.86900008
-0.14483334 -0.091865718 0.86900002
-0.085048579 -0.090828583 0.86700004
-0.08339715 -0.090002865 0.86700004
-0.14731619 -0.086072385 0.86900002
-0.085244767 -0.086900011 0.86900008
-0.082454562 -0.087169677 0.8670001
-0.078025244 -0.087108105 0.86700004
-0.017340001 -0.085048579 0.86700004
-0.14814381 -0.081934288 0.86900002
-0.14372985 -0.081658415 0.86900008
-0.085244767 -0.081934296 0.86900008
-0.081893235 -0.081891969 0.86855555
-0.077796191 -0.083589531 0.86900002
-0.025656192 -0.081934296 0.86900008
-0.023432067 -0.080769211 0.86833334
-0.017064128 -0.082020327 0.86700004
-0.14814383 -0.078623816 0.86900002
-0.14400572 -0.078623816 0.86900002
-0.085244767 -0.077796191 0.86900002
-0.082170755 -0.077441506 0.86900008
-0.025656192 -0.075313337 0.86900002
-0.022283336 -0.077572383 0.86650008
-0.017557142 -0.076949805 0.86614299
-0.021924382 -0.074012004 0.86540014
-0.018123809 -0.073319055 0.86500007
0.043863811 -0.072002865 0.86900002
0.045963496 -0.071285404 0.86700004
0.10486572 -0.070185721 0.86700004
0.1084181 -0.070347622 0.86900002
0.046346672 -0.065381907 0.86900002
0.10392349 -0.06808795 0.86833334
0.10676286 -0.067368202 0.86900008
0.11062509 -0.068140641 0.86900008
0.17297241 -0.065381907 0.86900008
0.17587715 -0.065231435 0.86700004
0.17312905 -0.06184715 0.86874998
0.17629001 -0.061517622 0.86700004
0.23367526 -0.060690001 0.86700004
0.23705025 -0.062100239 0.86650008
0.24156986 -0.060875244 0.86766672
0.17322306 -0.058071818 0.86860001
0.17547144 -0.058490481 0.86500007
0.23421621 -0.057933338 0.86900002
0.23743813 -0.056886356 0.86566681
0.24165526 -0.057734288 0.86600006
0.29214954 -0.05545048 0.86900002
0.23758478 -0.052300762 0.86620009
0.24171031 -0.051969718 0.86620009
0.29346573 -0.053319529 0.86800003
0.29859763 -0.053350478 0.86849999
0.30188456 -0.051429529 0.86633343
0.30704668 -0.051312387 0.86900002
0.23863018 -0.04827778 0.86900008
0.24101812 -0.048202865 0.86766672
0.3024427 -0.047076195 0.86720008
0.3077088 -0.046843242 0.86900008
0.31090891 -0.046070796 0.86900008
0.35753378 -0.047002591 0.8658573
0.36110324 -0.045858733 0.86500013
0.30166081 -0.042811621 0.86780006
0.30665493 -0.043180004 0.86633343
0.35780859 -0.042625718 0.86633343
0.3600086 -0.041760959 0.86660004
0.35863465 -0.037766036 0.86833334
0.36224371 -0.037107628 0.86585724
0.36659527 -0.037071433 0.86500013
0.36332482 -0.033104766 0.86900008
0.36675715 -0.032216512 0.86733341
0.36498001 -0.028139051 0.86900002
0.36579144 -0.028074287 0.86700004
0.36082858 0.014004763 0.86500007
0.35863528 0.016789526 0.86700004
0.36050269 0.017985335 0.86620009
0.35877144 0.023092382 0.86600006
0.36028546 0.021192065 0.86700004
0.35835716 0.025538096 0.86500007
0.066728577 0.07002382 0.86500013
0.070347622 0.070347622 0.86900002
0.022809207 0.092062548 0.86566675
0.025656192 0.093520962 0.86900002
0.053202227 0.10888541 0.86833334
0.055365399 0.10769874 0.86766672
0.052590482 0.11233937 0.86733335
0.055195242 0.1112143 0.86500007
0.30042574 0.11172858 0.86900002
0.30964288 0.11972858 0.86700004
0.31201237 0.11834953 0.86900002
0.31532288 0.11834953 0.86900002
0.30881619 0.1213781 0.86700004
0.31188765 0.12103429 0.86750007
0.31863335 0.12166001 0.86900002
0.3202886 0.12166001 0.86900002
0.35173813 0.14483334 0.86900002
0.35173813 0.14979906 0.86900002
0.34724116 0.15300271 0.8675456
0.35052383 0.15257905 0.86600006
0.3437607 0.15783271 0.86766672
0.34700164 0.15742764 0.8654446
0.34682384 0.16064286 0.86500007
0.3437489 0.21804732 0.86833334
0.34514669 0.21798478 0.86700004
0.34391004 0.22211716 0.86700004
0.34572542 0.22215399 0.86500013
0.34023336 0.23808096 0.86500007
0.34682384 0.23972858 0.86500007
-0.20578764 0.2426943 0.86500007
-0.2022962 0.24358574 0.86700004
0.34371144 0.24303144 0.86650008
0.34635311 0.24278846 0.86500013
-0.20512858 0.24714288 0.86500007
-0.20208721 0.24767751 0.86609095
-0.19839907 0.24800003 0.86800003
-0.14152287 0.24911335 0.86900002
0.34188098 0.24631907 0.86500007
-0.19899715 0.25019145 0.86700004
-0.14648858 0.25407907 0.86900002
-0.14284906 0.25225338 0.8670001
-0.13986763 0.2507686 0.86900002
-0.1468181 0.25765431 0.86850005
-0.14263016 0.25750068 0.86566675
-0.13592859 0.25620478 0.86500007
-0.13373177 0.25895083 0.86500013
-0.085244767 0.25904477 0.86900002
-0.081892811 0.25725704 0.86855555
-0.077576198 0.25752074 0.86785722
-0.15093143 0.26392287 0.86600006
-0.1476198 0.26284987 0.8670001
-0.14295928 0.2625629 0.86544454
-0.1384 0.26444286 0.86500007
-0.085609533 0.26261717 0.86849999
-0.082232073 0.26173109 0.86633343
-0.077420555 0.26196235 0.86614299
-0.074966669 0.26114765 0.86500007
-0.01567651 0.26319909 0.86633343
-0.012704573 0.26414838 0.86620009
-0.15570001 0.26609048 0.86500007
-0.15249287 0.26583144 0.86550003
-0.14702636 0.2657451 0.86566675
-0.14251906 0.26609048 0.86500013
-0.086600006 0.2655724 0.86600006
-0.08485239 0.26609048 0.86500007
-0.074530482 0.2687 0.86633343
-0.017905081 0.26580858 0.86766672
-0.013180953 0.26609048 0.86500007
0.048184134 0.26763338 0.86733341
0.051849436 0.26719198 0.8666364
0.05538667 0.26783907 0.86800003
0.10982001 0.26835716 0.86700004
0.11324286 0.26852095 0.86540014
0.34133178 0.2688365 0.86500013
-0.07661429 0.27103335 0.86500007
-0.073650166 0.27179021 0.86566681
0.047075238 0.27227929 0.86722231
0.051945951 0.27209169 0.86575013
0.055322859 0.27083433 0.86700004
0.10963 0.27201289 0.86550003
0.11127859 0.27201286 0.86550003
0.17752859 0.27496287 0.86700004
0.33858573 0.27185714 0.86500007
0.34064525 0.27226907 0.86500007
0.047099374 0.27572352 0.86766672
0.1112143 0.27597621 0.86500007
0.1730445 0.27826464 0.8670001
0.17725451 0.27702004 0.86655563
0.18190001 0.27722004 0.86580002
0.33936858 0.27991715 0.86700004
0.34020609 0.27639908 0.86633343
0.16927144 0.28404576 0.86700004
0.17202912 0.28237879 0.86611122
0.23826319 0.28443336 0.86566675
0.242667 0.28310922 0.86666673
0.24561432 0.28365433 0.86833334
0.30704725 0.28369078 0.8670001
0.31118476 0.28387335 0.86900002
0.33839414 0.28328899 0.86620009
0.17175841 0.28663146 0.86566675
0.18206191 0.28668571 0.86500007
0.23632097 0.28678614 0.86580008
0.24302383 0.28750953 0.86500013
0.24745812 0.28801143 0.86900002
0.30728099 0.28586191 0.86500013
0.31177306 0.28696227 0.86833334
0.33353049 0.28801143 0.86900002
0.33650637 0.2878437 0.86766672
0.23290801 0.29332289 0.86660004
0.24467145 0.29080477 0.86500007
0.2478787 0.29180518 0.86700004
0.3016597 0.2928521 0.8670001
0.33735338 0.29204452 0.86728585
0.23271573 0.29708529 0.86650002
0.26295027 0.29893547 0.86660004
0.26938573 0.29904288 0.86500007
0.27131718 0.29886258 0.86766672
0.29877049 0.29877049 0.86900002
0.30051398 0.29610765 0.86766672
0.33849621 0.29711527 0.86900008
0.26294801 0.30157623 0.86660004
0.26790923 0.30205148 0.86733335
0.27394193 0.30042574 0.86900002
0.29711527 0.30042574 0.86900002
0.33364287 0.30316192 0.86500007
0.33667338 0.30279717 0.86750001
0.33034763 0.30563337 0.86500007
-0.1718286 -0.097554296 0.87300009
-0.15180288 -0.091869764 0.87100017
-0.087100007 -0.0904181 0.87100005
-0.15188119 -0.087144881 0.87144458
-0.14658874 -0.087337025 0.87100017
-0.14350763 -0.087099999 0.87100005
-0.087300003 -0.086468577 0.87300003
-0.1526324 -0.082122862 0.87100017
-0.087615721 -0.082631916 0.8720001
-0.077145718 -0.081293337 0.87100017
-0.028203811 -0.081293337 0.87100005
-0.015797144 -0.080648579 0.87300003
-0.15197811 -0.07806477 0.87200004
-0.14724049 -0.077560484 0.87100005
-0.085440956 -0.075486675 0.87100005
-0.081293337 -0.075486675 0.87100005
-0.078524768 -0.077693336 0.87250006
-0.026735812 -0.077549152 0.87180007
-0.016608573 -0.078895241 0.87200004
-0.014134287 -0.078985721 0.87300003
0.043183811 -0.07557334 0.87200004
-0.085637152 -0.073165715 0.87300003
-0.08224985 -0.073940642 0.87233341
-0.026576191 -0.073912382 0.87200004
0.042145479 -0.072251916 0.8720001
0.039077144 -0.065682858 0.87300003
0.042347625 -0.067260005 0.871889
0.045623813 -0.067191429 0.87100005
0.10392858 -0.065682858 0.87300003
0.1075616 -0.066085398 0.87100005
0.11231754 -0.066196002 0.87100011
0.11673924 -0.066256955 0.87180007
0.039077144 -0.06235715 0.87300003
0.042358417 -0.062293656 0.8721112
0.045623817 -0.062214293 0.87100005
0.10714424 -0.062292807 0.8721112
0.11194001 -0.062511429 0.87225008
0.11640001 -0.064020008 0.87300003
0.16878001 -0.060694288 0.87300003
0.1706624 -0.062701434 0.8720001
0.17834763 -0.06304381 0.87100005
0.18094049 -0.061419524 0.87150007
0.23199019 -0.061661273 0.87100005
0.24139145 -0.062214289 0.87100005
0.10744953 -0.057324134 0.87233341
0.11058 -0.058200002 0.87300003
0.16878001 -0.058200002 0.87300003
0.17122351 -0.056705408 0.87133348
0.17679 -0.056854289 0.87150007
0.23330955 -0.05728972 0.87180007
0.29066575 -0.055641908 0.87200004
0.17175001 -0.052542865 0.87225008
0.17543145 -0.053211432 0.87300003
0.23408099 -0.052663814 0.87220001
0.2358543 -0.050659053 0.87200004
0.24470954 -0.051430479 0.87100005
0.24636859 -0.051430479 0.87100005
0.29260319 -0.051766988 0.8720001
0.29746726 -0.05126458 0.87100011
0.30941239 -0.050600957 0.87100005
0.31107146 -0.050600957 0.87100005
0.23363145 -0.04739143 0.87300003
0.23677832 -0.046950378 0.87166679
0.24222097 -0.046453334 0.87100005
0.2931942 -0.047343604 0.8721112
0.29795018 -0.047307413 0.87144458
0.30111715 -0.048941907 0.87100005
0.30941239 -0.048941907 0.87100005
0.31190097 -0.048112385 0.87100005
0.31677431 -0.047391433 0.87300003
0.2366246 -0.043400574 0.87300009
0.24028288 -0.044065718 0.87300003
0.29304481 -0.04399842 0.87166679
0.29791242 -0.043151435 0.87133348
0.30656159 -0.040708892 0.87233341
0.35807782 -0.041752696 0.87100005
0.35793114 -0.036846355 0.87266678
0.34726 -0.033534288 0.87300003
0.35211003 -0.033672862 0.87300003
0.35763505 -0.033354156 0.87242866
0.36214575 -0.031413473 0.87128592
0.36374924 -0.02798032 0.87266678
0.36582002 -0.025715239 0.87100005
0.36666003 -0.024111429 0.87300003
0.35668287 0.047391433 0.87300003
0.35813957 0.063151911 0.8725
0.36150533 0.062935047 0.87180007
0.36153242 0.066161908 0.8720001
0.019122858 0.073997147 0.87300003
0.053211432 0.070671432 0.87300003
0.06840159 0.072833344 0.87233341
0.071502864 0.07233429 0.87300003
0.017792573 0.076325148 0.87300009
0.086886667 0.078248195 0.87220013
0.086824909 0.082548991 0.87300014
0.24527144 0.083974294 0.87300003
-0.0041571432 0.087300003 0.87300003
0.10392858 0.087300003 0.87300003
0.24277717 0.085637152 0.87300003
0.24527144 0.085637152 0.87300003
0.27740324 0.086927436 0.87260008
0.32816225 0.088894926 0.87233341
0.33098003 0.08875905 0.87100005
-0.063873336 0.0904181 0.87100005
-0.0041571432 0.092288576 0.87300003
0.019122858 0.092288576 0.87300003
0.020738097 0.092906669 0.87100005
0.083142869 0.093120009 0.87300003
0.085637152 0.093120009 0.87300003
0.32801741 0.092235714 0.87250006
0.33210656 0.092258915 0.87271434
0.33506572 0.092288576 0.87300003
0.34757051 0.093736194 0.87100005
0.35253066 0.092382073 0.87245464
0.35586575 0.091247626 0.87100005
0.020785715 0.095614292 0.87300003
0.083420008 0.097831443 0.87300003
0.32342574 0.098108575 0.87300003
0.32705453 0.097571544 0.87233341
0.33223906 0.097336844 0.871889
0.33695143 0.0976362 0.87250006
0.34122801 0.098229527 0.87260008
0.34836859 0.098940007 0.87300003
0.35335717 0.098940007 0.87300003
0.024111429 0.10226572 0.87300003
0.025774287 0.10226572 0.87300003
0.032425717 0.10226572 0.87300003
0.053211432 0.10392858 0.87300003
0.055705719 0.10392858 0.87300003
0.083094776 0.10137668 0.8725
0.085539058 0.10131906 0.87200004
0.15048859 0.10226573 0.87300003
0.32301003 0.10268144 0.87300003
0.32708216 0.1020304 0.87227285
0.33218953 0.10215 0.8720001
0.33606347 0.1025983 0.87300009
0.34105203 0.10226573 0.87300009
0.35335717 0.1014343 0.87300003
0.053089529 0.10617906 0.87100005
0.32327679 0.10786953 0.87260002
0.32735679 0.10718019 0.8724001
0.33221513 0.10701673 0.87300014
0.33696616 0.10725429 0.87300014
0.34130144 0.1072543 0.87300003
0.34670573 0.10891715 0.87300003
0.35235947 0.10791943 0.87300009
0.35502002 0.10725429 0.87300003
-0.011633811 0.11217858 0.87250006
0.050600957 0.11198573 0.87100005
0.20821048 0.11032668 0.87100005
0.30790576 0.11279716 0.87300003
0.32242247 0.11182165 0.8715716
0.32708403 0.11157771 0.87300009
0.33007717 0.11224286 0.87300003
0.34199435 0.11279716 0.87300009
0.34670576 0.11224286 0.87300009
0.35169432 0.11058 0.87300003
0.35668287 0.11224286 0.87300003
-0.010808572 0.11723143 0.87300003
0.050600957 0.11530381 0.87100005
0.30765355 0.11750954 0.87260008
0.31149924 0.1177884 0.87220001
0.31677431 0.11778572 0.87300003
0.32213271 0.11743008 0.8727144
0.33839148 0.11723143 0.87300003
0.34217811 0.1170318 0.8726365
0.34718087 0.11746899 0.87300014
0.35003147 0.11556858 0.87300003
0.30739304 0.12212732 0.87233341
0.31853718 0.12028096 0.87100005
0.32222575 0.12041906 0.87200004
0.33756003 0.12138858 0.87300003
0.34130144 0.12138858 0.87300003
0.34587431 0.12055715 0.87300003
0.051430479 0.1285762 0.87100005
0.085637152 0.12887144 0.87300003
0.022448573 0.13386001 0.87300003
0.051875245 0.13155524 0.87150007
0.085637152 0.13219714 0.87300003
0.34338003 0.13302858 0.87300003
0.041571431 0.13552287 0.87300003
0.051430479 0.13521239 0.87100005
0.085637152 0.13718574 0.87300003
0.3018086 0.13884859 0.87300003
0.32675144 0.13884859 0.87300003
0.34296429 0.13760145 0.87300003
0.34504288 0.13884859 0.87300003
0.087300003 0.14134288 0.87300009
0.098940007 0.14383715 0.87300003
0.10283639 0.14270763 0.87220001
0.10713144 0.14284097 0.8720001
0.11141144 0.14134286 0.87300003
0.30222431 0.14092715 0.87300003
0.3272669 0.14244096 0.87260008
0.33063146 0.14272858 0.87300003
0.34338006 0.1421743 0.87300003
0.34646818 0.14264941 0.87300014
0.35003147 0.14300573 0.87300003
0.30277622 0.14848477 0.87100005
0.32760924 0.14594319 0.87233341
0.33007717 0.1455 0.87300003
0.34338006 0.14716287 0.87300003
0.34701952 0.14704028 0.87227285
0.35156798 0.1472708 0.8720001
0.22348225 0.15037367 0.87233341
0.22787373 0.15174992 0.87260008
0.23196858 0.15298288 0.87300009
0.30347145 0.15048859 0.87300003
0.34339368 0.1525889 0.87233347
0.34689203 0.15061355 0.87180007
0.35088858 0.15014382 0.87100005
0.23030573 0.15547715 0.87300003
0.34359813 0.15663525 0.87250006
0.33257145 0.16046573 0.87300003
0.34282574 0.1615743 0.87300003
0.34504288 0.16212858 0.87300003
0.34359813 0.21729335 0.87250006
0.34504288 0.21534002 0.87300003
-0.20655145 0.22480097 0.87100005
0.34338003 0.22032858 0.87300003
-0.20742193 0.22791526 0.87233341
-0.20785716 0.23030573 0.87300003
-0.20210382 0.24360478 0.87150007
-0.19991525 0.24470954 0.87100005
-0.20323335 0.24636859 0.87100005
-0.19991525 0.24636859 0.87100005
-0.14594319 0.24896035 0.87233341
-0.14197887 0.24891908 0.87180007
-0.14770214 0.25219333 0.87250006
-0.082585722 0.25439429 0.87150007
-0.078804769 0.25466383 0.87100005
-0.15048859 0.25691146 0.87300003
-0.14865524 0.25744858 0.87200004
-0.13552287 0.25857431 0.87300003
-0.086183816 0.25755373 0.87180007
-0.076404765 0.25744477 0.87200004
-0.15160972 0.26220289 0.87180007
-0.14848477 0.26130003 0.87100005
-0.087200001 0.26242954 0.87200004
-0.072479054 0.26188242 0.87225008
-0.017440002 0.26409048 0.87200004
-0.014101906 0.26295906 0.87100005
-0.072785176 0.26703829 0.8727144
-0.020738097 0.26627716 0.87100005
-0.019122858 0.26522574 0.87300003
0.044065721 0.26688859 0.87300003
0.046641719 0.26706231 0.87140006
0.052380007 0.26522574 0.87300003
0.057336669 0.26756716 0.87250006
0.11307429 0.26855144 0.87300003
0.04367258 0.27249888 0.87180007
0.05800743 0.27142003 0.87260002
0.10811462 0.27236032 0.87100005
0.17793112 0.27422827 0.87166679
0.043234289 0.2760343 0.87300003
0.10392858 0.2785286 0.87300003
0.1726124 0.2762787 0.87220001
0.17523049 0.27571714 0.87200004
0.18187335 0.27571714 0.8720001
0.24859716 0.27769715 0.87300003
0.25192291 0.27852863 0.87300003
0.25524858 0.2785286 0.87300003
0.29238576 0.27797431 0.87300003
0.30246526 0.27878383 0.87250006
0.30662143 0.27878383 0.87250006
0.34171715 0.2785286 0.87300003
0.17044286 0.2818543 0.87300003
0.22864287 0.2818543 0.87300003
0.23086002 0.28074574 0.87300003
0.248115 0.28205049 0.87214297
0.25192288 0.2818543 0.87300014
0.25524861 0.28185433 0.87300003
0.26855144 0.2818543 0.87300003
0.27187717 0.28143859 0.87300003
0.27737716 0.28153145 0.87200004
0.30247375 0.28118917 0.87300009
0.3065629 0.28191558 0.87233341
0.31101191 0.28277668 0.87200004
0.31511146 0.28351715 0.87300003
0.32841432 0.28351715 0.87300003
0.33302003 0.28402191 0.87200004
0.33717239 0.28374541 0.8720001
0.34088573 0.28102288 0.87300003
0.16878001 0.28850573 0.87300003
0.17005239 0.28784478 0.87100005
0.23419335 0.28817526 0.87200004
0.2352943 0.28684288 0.87300003
0.24913368 0.28729177 0.87100005
0.25102687 0.28691107 0.87220013
0.29705757 0.28684291 0.87300014
0.30213535 0.28732672 0.8726365
0.30579945 0.28717548 0.87300009
0.3162992 0.28684288 0.87300014
0.32675144 0.28518003 0.87300003
0.33195442 0.28728861 0.8721112
0.33595717 0.28618574 0.87100005
0.23234509 0.29271525 0.87233341
0.2352943 0.29100001 0.87300003
0.24968669 0.29116288 0.87100005
0.25246572 0.29066575 0.87200004
0.29853082 0.29271528 0.87233341
0.30164945 0.29121131 0.87185729
0.30679718 0.29016858 0.87300003
0.31743947 0.29216403 0.87300009
0.32675144 0.29349431 0.87300003
0.3322171 0.29219198 0.87227285
0.33595717 0.29365146 0.87100005
0.22894859 0.29614002 0.87100005
0.2309846 0.29740745 0.87180007
0.26260734 0.29802573 0.87166679
0.29734129 0.29706478 0.87250012
0.3173286 0.29571146 0.87300003
0.32841432 0.29515716 0.87300003
0.33201718 0.29626575 0.87300009
0.33635646 0.29776216 0.87150013
0.26076859 0.30063146 0.87200004
0.26834512 0.30046958 0.87233341
0.27021429 0.30014575 0.87300003
0.29149887 0.30114347 0.87300009
0.2958186 0.30080432 0.87250006
0.32786006 0.30236289 0.87300003
0.33196831 0.30232906 0.87192327
0.33661875 0.30146226 0.8720001
0.33150861 0.30632797 0.87166679
-0.17681882 -0.096748814 0.87575001
-0.17250001 -0.095833339 0.87500006
-0.17727239 -0.09448953 0.87800002
-0.17309144 -0.094489537 0.87800002
-0.15678573 -0.093235239 0.87800002
-0.093653336 -0.09114477 0.87800002
-0.15665215 -0.08730834 0.87725002
-0.092358105 -0.087012194 0.8768
-0.089166671 -0.086666673 0.87500006
-0.035956193 -0.086127624 0.87800002
-0.011706667 -0.086127624 0.87800002
-0.15730447 -0.083801597 0.87700003
-0.14466096 -0.084455244 0.87800002
-0.091825247 -0.084310964 0.87650001
-0.089472383 -0.081110485 0.87800002
-0.03177524 -0.082782865 0.87800002
-0.012542858 -0.082225405 0.87800014
-0.088348955 -0.077326097 0.87680006
-0.077765718 -0.076929525 0.87800002
-0.03093905 -0.077765726 0.87800002
-0.029166669 -0.077500008 0.87500012
-0.014215239 -0.077765718 0.87800002
-0.087601915 -0.073140323 0.87600005
-0.083058104 -0.072206199 0.87650001
-0.078601912 -0.074420959 0.87800002
-0.029166669 -0.07416667 0.87500006
0.03916667 -0.071666673 0.87500006
0.037862547 -0.067653343 0.87700003
0.16807429 -0.066059053 0.87800002
-0.059369527 -0.06104191 0.87800002
-0.0041809524 -0.0618781 0.87800002
0.036728095 -0.062607154 0.87650013
0.10416667 -0.062500015 0.87500012
0.11416668 -0.060833339 0.87500006
0.11665557 -0.061527945 0.87700003
0.16820382 -0.062608577 0.87650001
0.18479811 -0.06104191 0.87800002
0.19316003 -0.061041914 0.87800002
0.22995239 -0.06104191 0.87800002
0.23083335 -0.060833339 0.87500006
-0.058533337 -0.059369527 0.87800002
0.039300956 -0.059369527 0.87800002
0.042645719 -0.059369527 0.87800002
0.10416667 -0.05916667 0.87500006
0.10694444 -0.057500005 0.87500012
0.11259643 -0.057965957 0.87575006
0.11873905 -0.059369527 0.87800002
0.16806024 -0.057131194 0.87575006
0.17978096 -0.056860954 0.87800002
0.18197954 -0.059268098 0.87650001
0.19148764 -0.057697147 0.87800002
0.22995239 -0.059369527 0.87800002
0.23197488 -0.057284959 0.87680006
0.28789318 -0.057244387 0.87620002
0.29083335 -0.057500005 0.87500006
0.16955337 -0.052618101 0.87700003
0.17416668 -0.050833337 0.87500006
0.17798255 -0.052282225 0.87600005
0.18145335 -0.054352384 0.87800002
0.18981525 -0.052680001 0.87800002
0.23206243 -0.052590005 0.87650007
0.29076272 -0.052941334 0.87680006
0.31357145 -0.052680004 0.87800002
0.33782098 -0.052680004 0.87800002
0.3425594 -0.052122544 0.87800002
0.34701908 -0.051843815 0.87800002
0.1728127 -0.047662862 0.87800014
0.17727239 -0.049335241 0.87800002
0.23247692 -0.047593068 0.87671435
0.24416669 -0.045833338 0.87500006
0.24700801 -0.047931053 0.8768
0.25838289 -0.049335241 0.87800002
0.29183051 -0.047662862 0.87800002
0.34701908 -0.049335241 0.87800002
0.23331383 -0.043825716 0.87650001
0.23916668 -0.042500004 0.87500006
0.24222159 -0.043104135 0.87600011
0.29416668 -0.042500004 0.87500006
0.29583335 -0.042500004 0.87500006
0.35288841 -0.041250672 0.87680006
0.35666668 -0.041666672 0.87500006
0.30833337 -0.03916667 0.87500006
0.31265876 -0.038698733 0.87700003
0.34725955 -0.035894766 0.87650001
0.35220385 -0.037430823 0.8769092
0.35632023 -0.038220383 0.87620014
0.34709829 -0.032871589 0.87750006
0.35166669 -0.032500003 0.87500006
0.357232 -0.031230098 0.87680006
0.35872573 -0.028430477 0.87800002
0.36225379 -0.027316602 0.87671435
0.36569402 -0.023638731 0.87600011
0.35705337 0.045990478 0.87800002
-0.18145335 0.054352384 0.87800002
-0.18145335 0.057697147 0.87800002
-0.17894477 0.056024764 0.87800002
-0.068567626 0.057697147 0.87800014
-0.18145335 0.06104191 0.87800002
-0.10452382 0.064386673 0.87800002
-0.067731433 0.061041914 0.87800002
-0.064386673 0.06104191 0.87800002
0.010870477 0.062714294 0.87800002
0.35846418 0.062013976 0.87600005
-0.10452382 0.067731433 0.87800002
-0.057697147 0.069403812 0.87800002
0.0087800007 0.067313336 0.87800002
0.012740478 0.067672148 0.87725008
0.017549146 0.068687432 0.87740004
0.021740954 0.068567619 0.87800002
-0.10853753 0.072748572 0.87800008
-0.10317703 0.072401501 0.87671447
-0.056582224 0.072191119 0.87800002
-0.054352384 0.074420959 0.87800002
-0.047384135 0.072469845 0.87800014
-0.041809529 0.074420959 0.87800002
-0.016723812 0.073584765 0.87800002
0.007525715 0.071912386 0.87800014
0.01251778 0.072611116 0.87633336
0.017306667 0.072353095 0.87575001
0.021462223 0.071633659 0.87800002
0.044318099 0.071076192 0.87800002
0.047534924 0.072555237 0.87566674
0.052314155 0.073048852 0.87585723
0.057936057 0.073226407 0.87800014
0.063192114 0.072987489 0.87800014
0.066464126 0.073695883 0.87600005
0.073043816 0.073875718 0.87650001
0.076093338 0.073584765 0.87800002
0.086963817 0.074420959 0.87800002
-0.15135048 0.076929525 0.87800002
-0.11706667 0.076929525 0.87800002
-0.10820305 0.076762289 0.87800008
-0.10416667 0.075833336 0.87500006
-0.076093338 0.078601912 0.87800002
-0.073584765 0.078601904 0.87800002
-0.056024764 0.079438098 0.87800002
-0.052261911 0.078183815 0.87800002
-0.048499051 0.076929525 0.87800002
-0.041809529 0.076929525 0.87800002
-0.016723812 0.076929525 0.87800002
-0.012526668 0.077677146 0.87700003
-0.0071076192 0.078183815 0.87800002
-0.0025061907 0.078556672 0.87750006
0.012712978 0.0775325 0.87537503
0.017083336 0.078750007 0.87500006
0.020833334 0.079166673 0.87500006
0.048499051 0.076093338 0.87800002
0.053237468 0.077208266 0.87800014
0.057652071 0.077707298 0.87733346
0.062714294 0.077765718 0.87800014
0.067576505 0.077589847 0.87600011
0.072687864 0.077282622 0.87725002
0.076093338 0.077765718 0.87800002
0.083897792 0.078323185 0.87800002
0.086813815 0.075963333 0.87650001
0.10786858 0.079438098 0.87800002
0.18312572 0.079438098 0.87800002
-0.076093338 0.081946671 0.87800002
-0.073083051 0.082113914 0.87800008
-0.056693714 0.083117343 0.87800008
-0.052680004 0.082782865 0.87800014
-0.048917145 0.083200961 0.87800002
-0.010870477 0.083619058 0.87800002
-0.0069615878 0.083245091 0.87700003
-0.0027434016 0.083179057 0.87714297
0.0019511112 0.083340332 0.87800002
0.012993743 0.082622051 0.87628573
0.017519364 0.082595564 0.87600005
0.020833334 0.082500011 0.87500012
0.054352384 0.082782865 0.87800002
0.057674605 0.082751431 0.87766677
0.062691115 0.082751438 0.87766677
0.067220554 0.082504362 0.87757158
0.078601912 0.084455244 0.87800002
0.082884409 0.082884416 0.87687516
0.11121334 0.084455244 0.87800002
0.14967811 0.084455244 0.87800002
0.1524654 0.083897792 0.87800002
0.24834859 0.084455244 0.87800002
-0.076093338 0.086963817 0.87800002
-0.072539531 0.087590963 0.87800014
-0.067396961 0.088803433 0.87800008
-0.06355048 0.089472383 0.87800002
-0.056860954 0.086127624 0.87800002
-0.053014483 0.086796574 0.87800008
-0.047662862 0.087800011 0.87800014
-0.044318102 0.087800011 0.87800002
-0.022577144 0.089472383 0.87800002
-0.010870477 0.086127624 0.87800002
-0.0073059527 0.087440953 0.87650001
-0.0022916668 0.087500006 0.87500006
0.0019511114 0.088357471 0.87800014
0.0091980956 0.087800004 0.87800002
0.012745835 0.087972268 0.87762511
0.017560001 0.087800011 0.87800014
0.022099324 0.088038929 0.87800014
0.053348955 0.088468961 0.87800008
0.057697143 0.087800011 0.87800014
0.062714286 0.087800011 0.87800014
0.066059053 0.087800011 0.87800002
0.078601912 0.087800011 0.87800014
0.082687944 0.087700009 0.87700009
0.087150745 0.087392114 0.87628573
0.10619619 0.089472383 0.87800002
0.11121334 0.086127624 0.87800002
0.13351177 0.088078737 0.87800014
0.13749361 0.087561101 0.87800014
0.24333273 0.088157468 0.87600005
0.24646549 0.088143103 0.87725002
0.32583335 0.089166671 0.87500006
-0.10870477 0.092399053 0.87800002
-0.07174515 0.092482679 0.87800008
-0.067577779 0.092606992 0.87600011
-0.062620819 0.092681244 0.87671435
-0.057697147 0.09114477 0.87800002
-0.053516194 0.09114477 0.87800002
-0.047901772 0.09257824 0.87800014
-0.042604905 0.093202733 0.87714297
-0.03795024 0.093829289 0.87575001
-0.027594289 0.094489537 0.87800002
-0.0063974611 0.091492705 0.87600005
-0.0021672384 0.091563433 0.87560004
0.0015045715 0.092752576 0.87740004
0.0075257146 0.09448953 0.87800002
0.012532065 0.092747308 0.87733346
0.017291667 0.092500001 0.87500006
0.021666668 0.090833336 0.87500006
0.053131297 0.09253294 0.87757158
0.057588261 0.092642859 0.87633348
0.062714294 0.092817143 0.87800014
0.06647715 0.092399053 0.87800002
0.072720967 0.092781276 0.87766677
0.077705398 0.092746034 0.87733346
0.081946485 0.091957919 0.87620014
0.13285208 0.092746034 0.87733346
0.13752809 0.092866197 0.87650013
0.24333145 0.09114477 0.87800002
0.24667621 0.09114477 0.87800002
0.27845144 0.09448953 0.87800002
0.30855429 0.09448953 0.87800002
0.31154191 0.094381914 0.87700003
0.31524384 0.09281715 0.87800002
0.32327449 0.093629144 0.87620002
0.32583338 0.092500001 0.87500012
0.33583334 0.094166674 0.87500006
0.34283811 0.09448953 0.87800002
-0.15385905 0.097834289 0.87800002
-0.081110492 0.097834289 0.87800002
-0.072678372 0.097501501 0.87714297
-0.041391432 0.097416192 0.87800002
-0.037584443 0.097724132 0.87700009
-0.032387741 0.098000839 0.87762511
-0.027594289 0.097834289 0.87800014
0.012542859 0.096998096 0.87800014
0.0175 0.097500011 0.87500006
0.052889053 0.098043337 0.87800014
0.057439528 0.097958341 0.87725008
0.062652253 0.098214976 0.87714297
0.065946192 0.098500483 0.87650001
0.071494289 0.097834289 0.87800002
0.078769147 0.098168768 0.87800008
0.082036838 0.097333655 0.87600005
0.11372191 0.099506676 0.87800002
0.11748896 0.098769724 0.87740004
0.12124763 0.099506676 0.87800002
0.13362326 0.097165339 0.87800008
0.13671716 0.097416192 0.87800002
0.14967811 0.099506676 0.87800002
0.15192667 0.09850049 0.87650001
0.20988382 0.099506676 0.87800002
0.21364668 0.099088579 0.87800002
0.21680644 0.097752146 0.87725002
0.27845144 0.096161909 0.87800002
0.30799684 0.098949216 0.87800002
0.31213945 0.097701721 0.87680006
0.31580132 0.097276829 0.87800002
0.32171497 0.097499914 0.87650007
0.32583335 0.095833339 0.87500006
0.33250001 0.095833339 0.87500006
0.33807862 0.096830957 0.87650001
0.34195742 0.096332148 0.87575006
0.34729472 0.097641639 0.87628585
0.35107279 0.097565725 0.87560004
-0.087800004 0.10368763 0.87800002
-0.082305044 0.10261254 0.87800014
-0.078004636 0.10237362 0.87800014
-0.07271307 0.10256152 0.87757158
-0.040973336 0.10201526 0.87800002
-0.037389662 0.10237363 0.87800014
-0.03261143 0.10285145 0.87800014
-0.027833201 0.10332927 0.87800014
0.017521909 0.10094859 0.87600011
0.024249526 0.10452382 0.87800002
0.026666667 0.10416667 0.87500006
0.033280384 0.10352039 0.87800008
0.035956196 0.10285145 0.87800002
0.049335241 0.10285144 0.87800002
0.052336607 0.10217444 0.87628573
0.057166673 0.10150001 0.87500012
0.068567619 0.10117906 0.87800002
0.071076192 0.10201526 0.87800002
0.078434668 0.10251696 0.87800008
0.081944197 0.10330725 0.87620002
0.086127624 0.10452382 0.87800002
0.11400064 0.10173653 0.87800002
0.11785322 0.10259919 0.87762511
0.12124763 0.10117906 0.87800002
0.1490043 0.10267429 0.87650001
0.20964478 0.10273239 0.87700003
0.21239239 0.10201526 0.87800002
0.21657334 0.10117906 0.87800002
0.27845144 0.10285144 0.87800002
0.30712086 0.10309037 0.87800014
0.31168479 0.10211334 0.87740004
0.31524384 0.10117906 0.87800002
0.32131037 0.10251062 0.87687504
0.33916673 0.10250001 0.87500012
0.34083337 0.10250001 0.87500006
0.34711471 0.10261506 0.8774001
0.35164168 0.10288549 0.87650001
-0.086963817 0.10619619 0.87800002
-0.082305044 0.10810748 0.87800014
-0.077733211 0.10782178 0.87762511
-0.073877148 0.1072662 0.87650001
-0.037628576 0.10619619 0.87800002
-0.0323327 0.10731111 0.87800014
-0.027355378 0.10739075 0.87800014
-0.022786193 0.10807762 0.87800014
-0.017894479 0.10887201 0.87800008
-0.014215239 0.10870478 0.87800002
0.026925338 0.10719962 0.87800008
0.03261143 0.10619619 0.87800002
0.035956193 0.10619619 0.87800002
0.043481909 0.10954096 0.87800002
0.045990478 0.10954096 0.87800002
0.050949525 0.10774381 0.87700003
0.077765718 0.10786857 0.87800002
0.082782865 0.10786857 0.87800014
0.086127624 0.10786858 0.87800002
0.10870478 0.10954096 0.87800002
0.11344318 0.10842605 0.87800002
0.11790287 0.10765952 0.87800014
0.12292002 0.10739075 0.87800014
0.1485862 0.10601476 0.87650001
0.15083334 0.10583334 0.87500006
0.20946573 0.10786858 0.87800002
0.26507241 0.10954096 0.87800002
0.27218002 0.10745049 0.87800002
0.27711353 0.10686515 0.87800008
0.3030003 0.1082411 0.87714297
0.30698588 0.10780811 0.87750006
0.31134161 0.10842603 0.87800002
0.32216004 0.10738782 0.8768
0.3366667 0.1075 0.87500006
0.34194446 0.1075 0.87500012
0.34710041 0.10766254 0.87633348
0.35164669 0.10664514 0.87620014
-0.082504138 0.11232826 0.87800014
-0.077452518 0.11229851 0.87714297
-0.074336201 0.11275905 0.87700003
-0.046826668 0.11288572 0.87800002
-0.043649148 0.11322019 0.87800008
-0.03093905 0.11372191 0.87800002
-0.026758097 0.11372191 0.87800002
-0.022577144 0.11288571 0.87800014
-0.01753873 0.11275652 0.87700009
-0.013750002 0.11291668 0.87500006
0.024249526 0.11288572 0.87800002
0.027594289 0.11204953 0.87800014
0.031357147 0.11246762 0.87800002
0.035956193 0.11204953 0.87800002
0.043357622 0.11256524 0.87550008
0.047357939 0.11226492 0.87750006
0.077765718 0.11121334 0.87800002
0.09448953 0.11372191 0.87800002
0.10828668 0.11246763 0.87800002
0.11258024 0.11299905 0.87725008
0.11623048 0.11288573 0.87800002
0.12292001 0.11288572 0.87800002
0.12760267 0.11388915 0.87800008
0.18647049 0.1145581 0.87800002
0.29839557 0.11207112 0.87600005
0.30235821 0.11239926 0.87566668
0.30729493 0.1123489 0.87600005
0.31246883 0.11362405 0.87725002
0.3172507 0.11388915 0.87800008
0.32124028 0.11320595 0.87725002
0.32750005 0.11416668 0.87500012
0.33291668 0.11208334 0.87500006
0.33752149 0.11286243 0.87663645
0.34194446 0.11138889 0.87500012
0.35250005 0.11333334 0.87500012
0.35583338 0.11250001 0.87500012
-0.081667945 0.11846033 0.87800002
-0.076886192 0.11783573 0.87750006
-0.074251436 0.1176362 0.87600011
-0.042645719 0.11623048 0.87800002
-0.031942476 0.11857182 0.87800008
-0.025921907 0.11790287 0.87800002
-0.022577144 0.11790286 0.87800014
-0.017532064 0.11772508 0.87666672
-0.01299007 0.11761594 0.87585723
-0.0086111119 0.11861112 0.87500012
0.028430477 0.11957525 0.87800002
0.038464762 0.11623048 0.87800002
0.042884629 0.11742505 0.87800014
0.047662865 0.11790287 0.87800014
0.051565081 0.11846033 0.87800002
0.094489537 0.11790287 0.87800002
0.097595379 0.1183807 0.87800014
0.11372191 0.11706667 0.87800002
0.11689943 0.11823734 0.87800008
0.14800572 0.11957525 0.87800002
0.17978096 0.11957525 0.87800002
0.18479811 0.11623048 0.87800002
0.21657334 0.11623048 0.87800002
0.30232516 0.11748838 0.8774001
0.30604193 0.11758173 0.87560004
0.31250006 0.11583334 0.87500012
0.31822383 0.11665367 0.87700003
0.32100925 0.11665367 0.87700003
0.32766384 0.11796749 0.87671435
0.33175063 0.11754204 0.87687504
0.33659908 0.11776858 0.87700009
0.35222226 0.11750001 0.87500012
0.35666668 0.11583334 0.87500006
-0.081110485 0.12124763 0.87800002
-0.074420959 0.12124763 0.87800002
-0.051007621 0.12208381 0.87800002
-0.047662862 0.1237562 0.87800002
-0.03177524 0.12459239 0.87800002
-0.027103813 0.12309811 0.87757158
-0.02255143 0.1227781 0.87700009
-0.017518096 0.12264 0.87600011
-0.01205973 0.12262192 0.87757158
-0.0085291443 0.12258554 0.87800008
0.028430477 0.12124763 0.87800002
0.034283813 0.12124763 0.87800002
0.035956193 0.12124763 0.87800002
0.044318099 0.12124763 0.87800002
0.047105402 0.12236255 0.87800002
0.051007621 0.12124763 0.87800002
0.086127624 0.12459239 0.87800002
0.094489537 0.12292001 0.87800002
0.097834289 0.12292002 0.87800014
0.10229399 0.12347748 0.87800014
0.11706667 0.12124763 0.87800002
0.14131621 0.12459239 0.87800002
0.14800572 0.1237562 0.87800002
0.15385905 0.1237562 0.87800002
0.15636763 0.1237562 0.87800002
0.30297971 0.12236255 0.87800002
0.30552143 0.12271001 0.87650001
0.32819596 0.12135357 0.87575006
0.33227956 0.12270924 0.87530005
0.33683333 0.12316667 0.87500012
0.34233591 0.12319747 0.87600011
0.34747145 0.1232435 0.87633336
0.35166669 0.12083334 0.87500006
-0.032595512 0.12787552 0.87757158
-0.027036827 0.12765843 0.87800014
-0.022534922 0.1276962 0.87633348
-0.017532064 0.12774415 0.87666684
-0.011706667 0.12793715 0.87800002
0.029266668 0.12960953 0.87800002
0.037628572 0.12960953 0.87800002
0.043284386 0.12851754 0.87740004
0.047354151 0.12822518 0.87671435
0.051007621 0.12710096 0.87800002
0.079438098 0.12960953 0.87800002
0.083021782 0.12841497 0.87800014
0.087858334 0.12750882 0.87650001
0.092675567 0.12774096 0.87666684
0.09764795 0.1276924 0.87633336
0.10251204 0.12798154 0.87687504
0.1145581 0.12960953 0.87800002
0.11623048 0.12877333 0.87800002
0.13844925 0.12793714 0.87800014
0.14277953 0.12772809 0.87800014
0.14800572 0.12626478 0.87800002
0.15302287 0.12793715 0.87800014
0.15678573 0.12835523 0.87800002
0.17476381 0.12960953 0.87800002
0.17810859 0.12877333 0.87800002
0.22660764 0.12960953 0.87800002
0.28339955 0.12688382 0.87650001
0.28681335 0.12960953 0.87800002
0.29015812 0.12960953 0.87800002
0.30604193 0.12758857 0.87560004
0.33177859 0.12702906 0.87750006
0.33747271 0.12747268 0.87710011
0.34254381 0.12824453 0.87725008
0.34678346 0.12756416 0.87687504
0.35161811 0.12919143 0.87800002
0.017560001 0.13462667 0.87800002
0.020904763 0.13462667 0.87800002
0.029266668 0.13128191 0.87800002
0.037963051 0.13328879 0.87800008
0.042562861 0.13270126 0.87633348
0.047573019 0.13270126 0.87633336
0.050833337 0.13333334 0.87500006
0.079438105 0.1329543 0.87800002
0.082782865 0.13295431 0.87800014
0.088333338 0.13250001 0.87500012
0.092535242 0.13254985 0.87533337
0.097575568 0.13260096 0.87566674
0.10195764 0.13287859 0.87750006
0.1145581 0.13211811 0.87800002
0.11623048 0.13211811 0.87800002
0.15246542 0.13239685 0.87800014
0.17810859 0.13211811 0.87800002
0.28702238 0.13274525 0.87800014
0.2908271 0.13328879 0.87800008
0.29684764 0.13462667 0.87800002
0.30210298 0.13340893 0.87687504
0.30520955 0.1329543 0.87800002
0.33818465 0.13232207 0.87750006
0.34216732 0.1328035 0.87700009
0.34726244 0.13272715 0.87650001
0.35203621 0.13128191 0.87800002
0.037628576 0.13629906 0.87800002
0.044166669 0.13583334 0.87500006
0.047932196 0.13678057 0.8768
0.050833337 0.1375 0.87500006
0.079438098 0.13797143 0.87800002
0.082782865 0.13797143 0.87800014
0.088333338 0.13750002 0.87500012
0.092675574 0.13776381 0.87666672
0.097797789 0.13791969 0.87766677
0.10281176 0.13791841 0.87766677
0.10810748 0.13821036 0.87800014
0.11309477 0.13818046 0.87800014
0.17476381 0.13713524 0.87800002
0.1768543 0.13755333 0.87800002
0.26841718 0.13797145 0.87800002
0.271523 0.13844925 0.87800014
0.2751067 0.13880762 0.87800002
0.29149681 0.13812156 0.87762511
0.29680169 0.13847928 0.87725008
0.30174991 0.13674805 0.87628579
0.32916668 0.13916668 0.87500006
0.33113146 0.13880762 0.87800002
0.33798823 0.1383059 0.87800008
0.34120718 0.13752668 0.87650013
0.34754822 0.13744955 0.87680006
0.35092127 0.1385289 0.87800002
0.083059631 0.14188859 0.87740004
0.093163177 0.14154986 0.87600011
0.097554773 0.14174716 0.87550008
0.10166667 0.14166668 0.87500006
0.10786858 0.14131621 0.87800002
0.1764362 0.14382477 0.87800002
0.23998669 0.14466096 0.87800002
0.24249527 0.14298859 0.87800014
0.26841718 0.14298859 0.87800002
0.27176192 0.14298858 0.87800014
0.27594286 0.14298859 0.87800014
0.28865597 0.14244977 0.87725002
0.29166561 0.14301442 0.87687504
0.29717895 0.14196396 0.87757158
0.30203849 0.1432644 0.87560004
0.30693024 0.14345691 0.87575006
0.32768923 0.14282763 0.87700003
0.33166668 0.14250001 0.87500006
0.33690596 0.14307477 0.87725008
0.34161115 0.14282699 0.87700009
0.34833336 0.14083335 0.87500006
0.35238552 0.14220406 0.87575006
0.17392763 0.14633334 0.87800002
0.17583334 0.14583334 0.87500006
0.21155621 0.14967811 0.87800002
0.22416668 0.14916667 0.87500006
0.22766834 0.14913216 0.87725002
0.23296268 0.14867468 0.87800008
0.23664191 0.14967811 0.87800002
0.26758099 0.14633334 0.87800002
0.27145049 0.14616668 0.87700003
0.27677906 0.14633334 0.87800002
0.28179622 0.14967811 0.87800002
0.29183051 0.14675143 0.87800002
0.29718214 0.14767125 0.87800008
0.30197498 0.14765173 0.87590009
