# .PCD v0.7 - Point Cloud Data file format
VERSION 0.7
FIELDS x y z rgb normal_x normal_y normal_z curvature
SIZE 4 4 4 4 4 4 4 4
TYPE F F F F F F F F
COUNT 1 1 1 1 1 1 1 1
WIDTH 573
HEIGHT 1
VIEWPOINT 0 0 0 1 0 0 0
POINTS 573
DATA ascii
-0.11345404 0.21290326 0.86937702 0 0.54818881 0.62876999 -0.55148649 0.12039138
-0.11460652 0.21197683 0.871804 0 0.4534044 0.73955977 -0.49746937 0.11359216
0.032591559 -0.010221243 1.2299702 0 -0.89281785 0.291868 -0.34305874 0.060715042
-0.10881153 0.21412843 0.86381972 0 0.63852316 0.48595372 -0.59677237 0.11531327
-0.11104374 0.21496207 0.86651206 0 0.62982148 0.56369227 -0.53439313 0.11925828
0.037436448 -0.009837389 1.2291365 0 -0.91894752 0.19885728 -0.34057474 0.053858489
-0.11440218 0.22987205 0.83792424 0 -0.15126184 0.080235198 -0.985232 0.0098543279
-0.10554918 0.21601546 0.86212617 0 0.7121582 0.38998762 -0.58372968 0.10408513
0.041942962 -0.0098304749 1.2280482 0 -0.92285991 0.14505665 -0.3567746 0.046638798
-0.10071642 0.21856987 0.85571581 0 0.59274238 0.22927904 -0.77206713 0.084025741
-0.10205927 0.21894366 0.85910469 0 0.7132163 0.26634344 -0.64836997 0.097156249
0.046315901 -0.0078532696 1.2265456 0 -0.94614786 0.085250139 -0.31230861 0.024447747
-0.10561521 0.23165596 0.83421242 0 -0.10403591 0.067759834 -0.99226266 0.014643957
-0.097657077 0.22036552 0.85529625 0 0.65281403 0.18023634 -0.73576397 0.086554572
-0.096471615 0.22147149 0.85831493 0 0.78967786 0.19948201 -0.58018601 0.081363335
0.051828913 -0.0083496571 1.2252486 0 -0.90488034 0.07057368 -0.41977504 0.042995561
0.052289851 -0.010361791 1.2263484 0 -0.87682235 0.073192261 -0.47521091 0.056322318
-0.092936687 0.22161078 0.85349572 0 0.62109488 0.14834872 -0.76956731 0.075547859
-0.093578078 0.22187746 0.85739636 0 0.77575076 0.16862904 -0.60809129 0.074833043
0.05682217 -0.0075729489 1.2240937 0 -0.89645779 0.064202294 -0.43845358 0.040507033
0.056608565 -0.0097558498 1.2249774 0 -0.84739119 0.087539837 -0.52370322 0.058362797
-0.096742235 0.23643661 0.8293798 0 -0.20961514 0.048024982 -0.97660393 0.0095000109
-0.096183218 0.23325467 0.83075696 0 -0.06501238 0.039827034 -0.99708933 0.021767031
-0.088408045 0.22308594 0.85201865 0 0.58455449 0.17193335 -0.79292804 0.070903197
0.061562397 -0.0060876012 1.2228885 0 -0.90197164 0.066590197 -0.42662969 0.034251347
0.060927279 -0.009149909 1.2236063 0 -0.82800514 0.076703094 -0.55544949 0.055881396
-0.093030788 0.23602408 0.82716155 0 -0.22062619 0.053374454 -0.97389698 0.0093040438
-0.092534937 0.23526657 0.82838881 0 -0.16858515 0.04779778 -0.98452747 0.011677895
-0.088938542 0.23179197 0.83260763 0 0.084804475 0.048644044 -0.99520946 0.03700624
-0.085659049 0.22432297 0.84874469 0 0.51903504 0.13817759 -0.84351021 0.062661782
-0.083775856 0.22455215 0.84976697 0 0.59940112 0.14774679 -0.78669506 0.066469371
0.065752327 -0.0052469373 1.2214451 0 -0.89628291 0.090857349 -0.43407598 0.03447926
0.068125136 -0.0081399679 1.2213213 0 -0.82886732 0.090182357 -0.55212867 0.046313442
-0.085969664 0.23253906 0.83111179 0 0.079133593 0.044992689 -0.99584812 0.036665384
-0.082637914 0.22937036 0.83614153 0 0.28063327 0.055909581 -0.95818526 0.055010609
-0.079246141 0.22389597 0.8484965 0 0.61611068 0.13785347 -0.77550238 0.060494285
0.070908159 -0.0048334599 1.2207608 0 -0.90272886 0.097488753 -0.41901869 0.03077871
0.071004279 -0.0077359676 1.2204074 0 -0.84247649 0.09033525 -0.53110522 0.045044959
-0.082802467 0.2357533 0.82720399 0 -0.10257807 0.079506822 -0.99154252 0.015162652
-0.081169166 0.23324883 0.82991767 0 0.032440465 0.069443487 -0.99705827 0.02862999
-0.079310156 0.23149008 0.83231807 0 0.20310341 0.067894138 -0.97680062 0.050356388
-0.074229665 0.2241227 0.84640145 0 0.62866682 0.10965557 -0.76990503 0.062838785
0.075936139 -0.0032907724 1.2203655 0 -0.90133619 0.10590387 -0.41997316 0.034864523
0.076018184 -0.006693244 1.2192234 0 -0.86489284 0.10910162 -0.48995638 0.040072393
-0.076574676 0.23772949 0.82685125 0 -0.011723825 0.092217177 -0.9956699 0.023003468
-0.075904764 0.23429221 0.82864702 0 0.09511368 0.092833877 -0.99112827 0.034455977
-0.073866583 0.23197842 0.83105117 0 0.27867961 0.081978902 -0.95687878 0.050178055
-0.071569987 0.22927046 0.83539498 0 0.40510786 0.0860423 -0.91021115 0.053026561
-0.070282646 0.22671074 0.84230673 0 0.5955407 0.078433126 -0.79948711 0.064904854
-0.070714004 0.22736937 0.84631431 0 0.67674613 0.087126866 -0.7310428 0.069303736
0.081847712 -0.0026689768 1.2188363 0 -0.91416132 0.09373083 -0.39436474 0.036769062
0.081451952 -0.0047798157 1.2194752 0 -0.8752389 0.10441732 -0.47228578 0.050915617
-0.072714858 0.23784167 0.82417637 0 0.0102064 0.076542832 -0.99701405 0.018638138
-0.071340688 0.23493254 0.82719809 0 0.15678853 0.099860072 -0.98257083 0.033131439
-0.069866218 0.23168826 0.83120668 0 0.30873019 0.089733303 -0.9469074 0.050836258
-0.067798086 0.22911108 0.83535051 0 0.43766081 0.071224667 -0.89631474 0.051465936
-0.066239141 0.22779751 0.8404237 0 0.56043911 0.044103201 -0.82702053 0.064109512
-0.063966341 0.22852373 0.84382463 0 0.62724972 0.053277507 -0.77699375 0.068324119
0.08594583 -0.0046362281 1.2178879 0 -0.87115473 0.10685584 -0.4792403 0.052397318
-0.067894481 0.24037981 0.82374251 0 0.0090971505 0.12552051 -0.99204928 0.017557289
-0.066395275 0.23599344 0.82671559 0 0.13032945 0.12763518 -0.98322099 0.029807255
-0.064990588 0.2324366 0.8304522 0 0.28948647 0.11927781 -0.94972116 0.047206692
-0.063381366 0.23059171 0.83445883 0 0.43347812 0.091666192 -0.89648986 0.054213069
-0.061534084 0.22864068 0.83868802 0 0.5586046 0.056373581 -0.82751614 0.063507095
0.090982966 -0.00443542 1.2160206 0 -0.87287647 0.080083795 -0.48132455 0.053039305
-0.063478269 0.24105024 0.82281321 0 -0.029229201 0.11339851 -0.99311966 0.015866896
-0.0616749 0.23671252 0.82504666 0 0.12884247 0.10915329 -0.98563951 0.031345908
-0.059752814 0.23325008 0.82905817 0 0.31354678 0.098781899 -0.94442081 0.044783343
-0.05816675 0.23054665 0.83258563 0 0.4088487 0.090926751 -0.90806115 0.053065415
-0.056818269 0.22961086 0.83751082 0 0.55028993 0.08136259 -0.83100009 0.06401372
-0.054562338 0.2298432 0.84083927 0 0.65661323 0.050827153 -0.75251293 0.061791375
0.095687345 -0.0037810206 1.2143506 0 -0.87007231 0.090463132 -0.48455203 0.051832963
-0.060086794 0.24069554 0.82312691 0 -0.026686147 0.10792583 -0.99380076 0.013602925
-0.05718226 0.23594427 0.82359207 0 0.090138055 0.1126827 -0.98953414 0.027353909
-0.055375062 0.23367852 0.82703322 0 0.2644206 0.1127 -0.95779973 0.043661121
-0.053895496 0.23136777 0.83129221 0 0.3938702 0.10474938 -0.91317785 0.057001315
-0.052349098 0.22957516 0.83590043 0 0.52341056 0.091530554 -0.84715033 0.061063856
-0.050411768 0.23025942 0.83979976 0 0.64089191 0.091276832 -0.7621851 0.060440648
0.10001466 -0.0031741858 1.2129774 0 -0.85044861 0.1146477 -0.51341325 0.053514436
-0.052058347 0.23806202 0.82199359 0 0.075629435 0.1170597 -0.99024105 0.028541012
-0.050953843 0.23475075 0.8257193 0 0.24809788 0.11449682 -0.96194488 0.048511095
-0.04926727 0.23208946 0.83000541 0 0.35668433 0.094624832 -0.92942041 0.054150824
-0.047570147 0.23005641 0.83432859 0 0.50827956 0.11326426 -0.85371131 0.069052286
-0.045497812 0.23003793 0.83846378 0 0.6625464 0.086286485 -0.74403417 0.060759988
0.10471186 -0.0021972656 1.2116976 0 -0.85633874 0.11620924 -0.50316936 0.053238027
-0.048761614 0.2426998 0.81883645 0 -0.10623402 0.14748268 -0.98334289 0.015399686
-0.04753194 0.24018973 0.82196105 0 0.073133878 0.1214646 -0.98989791 0.031217266
-0.04573179 0.23586923 0.82494688 0 0.26283106 0.073286489 -0.96205449 0.05346844
-0.044510104 0.23340571 0.82836711 0 0.35158011 0.087748654 -0.93203628 0.064629279
-0.042655207 0.23088723 0.8328107 0 0.50845057 0.088466242 -0.85653478 0.074124388
-0.042206801 0.23063803 0.83718729 0 0.64132589 0.071674831 -0.76391357 0.058714744
0.10966053 -0.0021418929 1.2104528 0 -0.82472014 0.12660985 -0.55118662 0.057030905
-0.042398535 0.241184 0.8208487 0 0.026113005 0.16311683 -0.98626113 0.043758508
-0.041154839 0.23652756 0.82333684 0 0.17410094 0.11719912 -0.97772855 0.050339703
-0.039796315 0.23490012 0.82725036 0 0.36588377 0.097434923 -0.92554605 0.072063297
-0.038398124 0.23303282 0.8316806 0 0.48489609 0.086234458 -0.87030995 0.080556042
0.11476373 -0.0016561747 1.2092183 0 -0.82304633 0.10816775 -0.55757904 0.061217498
-0.038263001 0.24154276 0.81990665 0 -0.030710153 0.20527169 -0.97822309 0.05063732
-0.036393501 0.2386986 0.8222369 0 0.091443665 0.19493277 -0.9765445 0.053527463
-0.034613706 0.23592263 0.82631183 0 0.32613009 0.13055733 -0.93626595 0.070261545
-0.033630826 0.2341094 0.83001703 0 0.42394179 0.10528117 -0.89954942 0.075935915
0.11931324 -0.00080442429 1.20823 0 -0.81546319 0.089327641 -0.57187444 0.062105279
-0.031673796 0.24042547 0.82123303 0 0.012774377 0.21185559 -0.9772175 0.064020932
-0.030063517 0.23779041 0.82521141 0 0.22399002 0.15317565 -0.96247888 0.070559055
-0.028657682 0.23563719 0.82900053 0 0.39735818 0.12344842 -0.90932226 0.082302004
0.12460248 -0.0011537075 1.2064264 0 -0.76666272 0.065319128 -0.63871884 0.071404472
-0.02720546 0.24065799 0.82047498 0 -0.018524412 0.18433078 -0.98268962 0.058457837
-0.025472067 0.23849267 0.82395697 0 0.152551 0.15265147 -0.97643518 0.068174355
-0.024227194 0.23659104 0.82703793 0 0.2925809 0.12576438 -0.94793445 0.084029339
0.129592 1.0728836e-05 1.2052033 0 -0.7548281 0.092112862 -0.64942265 0.072626807
-0.022625588 0.24138361 0.81888205 0 -0.035757683 0.17964923 -0.98308063 0.053369168
-0.021520697 0.23921317 0.82242453 0 0.09378764 0.17828305 -0.9794994 0.057909925
-0.021333672 0.23699695 0.8261193 0 0.25053233 0.13785091 -0.95824355 0.070015848
0.13367935 0.0012872219 1.2036399 0 -0.78492039 0.089436352 -0.61310774 0.075120255
0.13838783 0.0011512041 1.2027538 0 -0.7217474 0.089115225 -0.68639576 0.078937598
0.14659172 -0.010353088 1.2185478 0 -0.12652388 0.087962151 -0.98805583 0.015573889
0.14734665 -0.012106538 1.2214212 0 -0.03663934 0.08551275 -0.99566311 0.0083731767
0.14453921 0.0022221804 1.2023489 0 -0.73066854 0.089396052 -0.67685431 0.078682475
0.14803131 -0.010151088 1.2180909 0 -0.12183146 0.082389474 -0.98912537 0.016952049
0.14852679 -0.010908008 1.2193172 0 -0.10099334 0.079848975 -0.99167758 0.014513845
0.14861715 0.0024409294 1.2008653 0 -0.70281184 0.087821864 -0.70593405 0.080022641
0.15025106 -0.00033605099 1.2014759 0 -0.54299086 0.072640024 -0.83659101 0.07143075
0.15617326 -0.0081822872 1.2141225 0 -0.23537424 0.071943417 -0.9692384 0.02615937
0.15671557 -0.011411846 1.2194846 0 -0.036131557 0.056695938 -0.99773747 0.0073068202
0.15748388 -0.012215137 1.2217418 0 -0.003396872 0.05422195 -0.99852318 0.006292705
0.15294667 0.00304842 1.1994908 0 -0.6958214 0.072389901 -0.71455741 0.075019188
0.15409774 -0.00020945072 1.2009463 0 -0.50890648 0.079482272 -0.85714453 0.067632772
0.15652823 -0.001521349 1.2029419 0 -0.4359304 0.058647323 -0.89806747 0.051716518
0.16148293 -0.0090901852 1.2152041 0 -0.14738673 0.046106488 -0.98800367 0.015691774
0.1609374 -0.011758745 1.2210181 0 0.0081947716 0.042941816 -0.99904394 0.0074792104
0.15568009 0.0051985383 1.1995691 0 -0.76590502 0.10553911 -0.63423258 0.066987485
0.15893383 0.0014731884 1.1994379 0 -0.55446798 0.080685891 -0.82828432 0.063493028
0.16197184 -0.0010329485 1.2016749 0 -0.42318666 0.055497214 -0.90434116 0.048098166
0.16508187 -0.0085852146 1.2140615 0 -0.10248362 0.06977386 -0.9922846 0.022542745
0.16397731 0.0018819571 1.1981909 0 -0.56754237 0.061734211 -0.8210265 0.059157927
0.16566116 -0.0010662675 1.201426 0 -0.4039467 0.058921829 -0.91288298 0.044001311
0.16714755 -0.0033369064 1.2051048 0 -0.33345506 0.072743133 -0.93995547 0.047546022
0.16927898 -0.0057924986 1.2090399 0 -0.18735531 0.097182125 -0.97747314 0.036248408
0.17084017 -0.0077772737 1.2122335 0 -0.10125037 0.096688375 -0.99015135 0.028442405
0.16864003 0.0030754209 1.1973693 0 -0.57546163 0.055072062 -0.81597233 0.057287842
0.16997987 -0.00046032667 1.2000551 0 -0.40618789 0.094166644 -0.90892458 0.045629632
0.17146628 -0.0027309656 1.2037337 0 -0.30015299 0.097454406 -0.94889981 0.04989244
0.1730116 -0.0055718422 1.2083622 0 -0.17636316 0.11198826 -0.97793388 0.036441211
0.17468682 -0.007650733 1.2117043 0 -0.077825129 0.10269325 -0.99166393 0.02917969
0.1726553 0.0037071705 1.1954596 0 -0.54505944 0.11516016 -0.83045065 0.053932454
0.17429858 0.00014561415 1.1986841 0 -0.34626487 0.12535341 -0.92972428 0.051955543
0.17578501 -0.0021250248 1.2023628 0 -0.32669064 0.11786618 -0.93775302 0.053597029
0.17790614 -0.0048850775 1.2068083 0 -0.19658569 0.10973904 -0.97432613 0.039990455
0.17925328 -0.0074232221 1.2109463 0 -0.031076387 0.10540207 -0.99394399 0.026627664
0.18072796 -0.0090757608 1.2135911 0 0.13278942 0.1030473 -0.98577291 0.016359907
0.1775877 0.0041370988 1.1938124 0 -0.56363553 0.07072372 -0.82299036 0.054983415
0.1793371 0.00085258484 1.1970847 0 -0.39074793 0.10451589 -0.91454494 0.066264711
0.18084389 -0.0013400912 1.200631 0 -0.3265408 0.096276052 -0.94026697 0.056700412
0.18324006 -0.0041091442 1.2050691 0 -0.19108413 0.091701254 -0.97728074 0.040897615
0.18433425 -0.0063807964 1.2097576 0 0.00093132205 0.11126868 -0.99378991 0.024068385
0.18512058 -0.0071023107 1.2138281 0 0.13394542 0.10743663 -0.98514771 0.016107997
0.18299791 0.0047444105 1.1928691 0 -0.52967501 0.053453568 -0.84651464 0.058435883
0.18437561 0.0015594959 1.1954851 0 -0.36968425 0.075215034 -0.92610818 0.059994858
0.185862 -0.00071114302 1.1991637 0 -0.30536225 0.075936012 -0.94920367 0.051423583
0.18759614 -0.0033602715 1.2034556 0 -0.15818948 0.10083035 -0.98224705 0.038196869
0.18920377 -0.0047333837 1.2082238 0 -0.024348959 0.11061194 -0.99356532 0.023899917
0.18874028 -0.0042819977 1.2127113 0 0.10224868 0.10936146 -0.98872912 0.018014638
0.18723923 0.0060249567 1.1916764 0 -0.54848796 0.09287826 -0.83098412 0.052955925
0.18854603 0.0026897192 1.1939583 0 -0.43452334 0.10229269 -0.89483279 0.051168323
0.19018073 -0.0001052618 1.1977928 0 -0.27300221 0.10425088 -0.956348 0.051949445
0.19176731 -0.0023005605 1.2024016 0 -0.12913366 0.10330032 -0.98623198 0.037546583
0.19355169 -0.0025253892 1.2080722 0 -0.017753804 0.12089084 -0.9925071 0.029038727
0.19223067 0.0072395205 1.1902068 0 -0.56426585 0.09637633 -0.81994855 0.059052628
0.19282717 0.0036066771 1.1926612 0 -0.44422391 0.11078043 -0.88904047 0.057405621
0.19449945 0.00050073862 1.1964216 0 -0.25571713 0.12598139 -0.9585079 0.053653713
0.1963248 -0.0014651418 1.2009817 0 -0.11159667 0.11926771 -0.98657054 0.037748061
0.19882509 -0.0024694204 1.2060051 0 0.052236449 0.092366405 -0.99435401 0.022257624
0.19695842 0.0075813532 1.1888258 0 -0.536569 0.080275469 -0.8400296 0.062529795
0.19814596 0.0048063993 1.1917751 0 -0.40902862 0.12209741 -0.90431619 0.065899968
0.19969299 0.002230525 1.1960247 0 -0.28850228 0.10254176 -0.95197248 0.056994285
0.20117107 -0.00044733286 1.1994098 0 -0.15402807 0.092735045 -0.98370504 0.045518164
0.20362067 -0.0027099252 1.2036459 0 0.054350592 0.069757722 -0.99608237 0.02060798
0.20500746 -0.0037076473 1.2078042 0 0.20219702 0.05609557 -0.97773707 0.01039122
0.20140266 0.0093300343 1.1877619 0 -0.54539365 0.10523832 -0.83154714 0.06985385
0.2030561 0.0059361458 1.1905191 0 -0.39154133 0.10125498 -0.91457254 0.059629552
0.20479397 0.0032799244 1.1948225 0 -0.33679757 0.10409536 -0.93580532 0.057496462
0.20628411 0.0010035634 1.1985104 0 -0.21046007 0.10474358 -0.97197503 0.043655474
0.20755978 -0.0011007786 1.2027956 0 -0.0064060856 0.084552631 -0.99639845 0.024236862
0.2088448 -0.0020148158 1.2072561 0 0.1896964 0.049224403 -0.98060805 0.010198335
0.20607778 0.0099687576 1.1867715 0 -0.50917822 0.12906273 -0.85092902 0.069524698
0.20734608 0.0063146353 1.1888807 0 -0.40862405 0.12741867 -0.90376478 0.059048824
0.20909786 0.0037352443 1.1932712 0 -0.32960191 0.11650211 -0.93690437 0.051118661
0.21061361 0.0016109943 1.1971359 0 -0.22893034 0.10907182 -0.96731281 0.041694455
0.21184155 0.0014508963 1.2012064 0 -0.16355902 0.09179794 -0.98225331 0.037341345
0.21238658 -0.0017948151 1.2065952 0 0.1446133 0.073578082 -0.98674881 0.0088379681
0.21142785 0.010528684 1.186043 0 -0.46431792 0.076043405 -0.88239807 0.068064637
0.21246567 0.0074240565 1.1877391 0 -0.39300132 0.074913234 -0.91648138 0.060360897
0.21415508 0.0044819117 1.1917121 0 -0.32741991 0.07825575 -0.94163281 0.056372538
0.21582824 0.0032277703 1.1966014 0 -0.26167777 0.077699564 -0.96202266 0.04732047
0.2173973 0.0017112494 1.2003117 0 -0.13535832 0.054170363 -0.98931473 0.037338957
0.21817365 -0.00098282099 1.2047579 0 0.067626275 0.06702213 -0.99545699 0.011350867
0.21504477 0.011036158 1.1848948 0 -0.47682443 0.069181889 -0.87627178 0.062869236
0.21722209 0.0088077188 1.1867107 0 -0.38541263 0.028292125 -0.92231041 0.061114505
0.21931544 0.0063474178 1.1906173 0 -0.3770597 0.011275173 -0.92612028 0.055472456
0.22094503 0.0042412877 1.1953493 0 -0.27987942 -0.0026890573 -0.96003139 0.045900386
0.22222382 0.0021807551 1.1991271 0 -0.15500373 0.019116357 -0.98772889 0.031083521
0.22322559 0.00034892559 1.2021114 0 0.016186796 0.029687539 -0.99942815 0.014885059
0.22183716 0.0098297596 1.1863536 0 -0.43003598 0.014604204 -0.90269363 0.056460422
0.22357056 0.0076644421 1.1898355 0 -0.39137805 -0.019719472 -0.92001861 0.054015603
0.22444531 0.0048803091 1.1944244 0 -0.29392415 -0.006991752 -0.95580328 0.047010701
0.22621909 0.0031359196 1.1971984 0 -0.16943094 -0.0099753197 -0.98549151 0.032761615
0.22635633 0.0009957552 1.2007699 0 -0.0092667434 0.00031409049 -0.99995703 0.013779056
0.226666 0.010175109 1.1853768 0 -0.46506363 0.0033941662 -0.88527066 0.05570538
0.22846043 0.0090426803 1.1871245 0 -0.44761473 0.00013330128 -0.89422655 0.0557505
0.23134944 0.0054337382 1.1929278 0 -0.2885282 -0.052152544 -0.95604992 0.040569384
0.23259431 0.003532052 1.1960087 0 -0.11525328 -0.054174427 -0.99185777 0.021049527
0.2312707 0.011414409 1.1829219 0 -0.53256935 0.0020950686 -0.84638369 0.0603838
0.23345292 0.0092586279 1.1863508 0 -0.4732343 -0.030131569 -0.88042122 0.051621169
0.23566319 0.0056481361 1.1905398 0 -0.33689904 -0.065818526 -0.93923742 0.035392553
0.23705214 0.0035520196 1.1930047 0 -0.21132614 -0.068529926 -0.97501028 0.023904424
0.23937729 0.0028226972 1.1966363 0 -0.15545309 -0.095533699 -0.98321289 0.013487845
0.23529959 0.013877988 1.1784647 0 -0.59692872 -0.0095835393 -0.80223697 0.05569217
0.23678163 0.012217283 1.1811228 0 -0.57578462 -0.019098243 -0.81737834 0.054988787
0.23793727 0.0092356801 1.1847175 0 -0.50619209 -0.046256978 -0.86117929 0.050257295
0.23951367 0.0052351952 1.1879017 0 -0.3450726 -0.065042891 -0.93631953 0.034425944
0.24128328 0.0029015541 1.1924434 0 -0.19792575 -0.081808195 -0.97679716 0.018663701
0.2423535 0.00065469742 1.1948152 0 -0.1014596 -0.09681496 -0.99011755 0.0077028158
0.24115351 0.012253821 1.1801429 0 -0.58464009 -0.030175904 -0.81073129 0.050895579
0.24208829 0.0091787577 1.1829326 0 -0.50883746 -0.033808544 -0.8601985 0.045607463
0.24380657 0.0062682033 1.1865987 0 -0.3494249 -0.060911559 -0.93498236 0.029613798
0.245518 0.0034988523 1.1907685 0 -0.22237687 -0.073889941 -0.97215676 0.018442402
0.24656773 0.00082737207 1.193918 0 -0.11616234 -0.093809366 -0.98879021 0.0073972493
0.2459712 0.01250124 1.1778066 0 -0.60721534 -0.0044219238 -0.79452491 0.044792201
0.24717709 0.0084478855 1.1803942 0 -0.48659256 -0.0012637652 -0.87362814 0.038238663
0.24885759 0.0069764853 1.1849959 0 -0.37278616 -0.0074758744 -0.9278872 0.032072935
0.25076231 0.0050058365 1.1900895 0 -0.21410108 -0.034188699 -0.97621298 0.020273264
0.25175288 0.0020832419 1.191973 0 -0.13621083 -0.037647571 -0.98996425 0.014914464
0.25088382 0.013203323 1.1767461 0 -0.60704708 0.039462712 -0.79368532 0.039704707
0.25241867 0.0099619031 1.1797037 0 -0.51523024 0.043656867 -0.85593915 0.037060138
0.25394669 0.0078383088 1.1835666 0 -0.39974052 0.035333354 -0.91594708 0.030178364
0.25570333 0.0052597523 1.1879555 0 -0.22939792 0.032695279 -0.97278345 0.019477312
0.25654161 0.001767993 1.1891778 0 -0.13924283 0.029021323 -0.98983294 0.011387951
0.25538933 0.013394058 1.1759434 0 -0.55701834 0.084775902 -0.82616198 0.040537186
0.2568644 0.011031032 1.178848 0 -0.51038039 0.081356741 -0.85609168 0.034792043
0.2582778 0.0084459782 1.1821916 0 -0.38224268 0.072392128 -0.92122191 0.024669852
0.25985828 0.0051814914 1.1857915 0 -0.24970254 0.082271442 -0.96482122 0.015194786
0.26158011 0.0024749041 1.1875782 0 -0.14027616 0.09005633 -0.98600829 0.0077779251
0.25921834 0.014742374 1.1750429 0 -0.59109038 0.11295835 -0.79865664 0.041381862
0.2611866 0.012942195 1.1778941 0 -0.51273578 0.10194319 -0.85247272 0.036449082
0.26288885 0.010126472 1.1820335 0 -0.41910973 0.10572893 -0.90175861 0.030823389
0.26433581 0.0063606501 1.1850742 0 -0.24320874 0.095305339 -0.96528047 0.01622773
0.26530206 0.0034358501 1.1869633 0 -0.1474475 0.10682072 -0.98328447 0.0098118642
0.26591587 0.013439655 1.1766708 0 -0.49779919 0.11115178 -0.8601402 0.038570728
0.26799312 0.010990322 1.1805999 0 -0.40574709 0.11938022 -0.90615547 0.034448266
0.26917359 0.0079388022 1.1844099 0 -0.2610814 0.11992038 -0.95783901 0.019633299
0.27037293 0.005902648 1.1876197 0 -0.18793614 0.12920882 -0.97364527 0.013724672
0.27325872 0.013805449 1.1754522 0 -0.46432909 0.11440646 -0.87824237 0.035149399
0.27289084 0.011954427 1.1785816 0 -0.40196437 0.13656448 -0.90541416 0.031648535
0.27522498 0.014662683 1.1738546 0 -0.45917207 0.12808159 -0.87906539 0.036300227
0.27689919 0.013070405 1.1763821 0 -0.42150417 0.13026668 -0.89742118 0.033650268
0.28183159 0.0079487562 1.1845493 0 -0.16417274 0.14198233 -0.97615999 0.013893377
0.28074154 0.014440119 1.1737719 0 -0.43320706 0.098452203 -0.89590114 0.037560053
0.28123951 0.013679385 1.1750042 0 -0.39155477 0.11804674 -0.91255122 0.036039043
0.28400174 0.0082532167 1.1838603 0 -0.14417601 0.13728343 -0.97998297 0.013630779
0.28363508 0.014846087 1.1728532 0 -0.38891798 0.10120578 -0.91569656 0.03600632
0.27079201 0.10947037 1.011595 0 0.096225254 -0.10314687 -0.99000072 0.054823004
0.27115309 0.10670489 1.0122914 0 0.094289631 -0.12373031 -0.98782599 0.058208048
0.27144766 0.10385382 1.0170403 0 0.12092948 -0.3087022 -0.94343996 0.068921424
0.26984674 0.11925155 0.99724972 0 -0.12182521 -0.23639216 -0.96399039 0.040300675
0.27026936 0.1152581 0.99804497 0 -0.11694593 -0.18452094 -0.97584611 0.04229176
0.27367833 0.10987532 1.0106788 0 0.059654575 -0.089507319 -0.99419802 0.042365491
0.27447173 0.10753536 1.0129694 0 0.083222568 -0.1189247 -0.98940939 0.050206725
0.26785693 0.1330595 0.97624934 0 -0.052468747 -0.32256299 -0.94509268 0.027300505
0.2748282 0.12241012 0.99350232 0 -0.091752037 -0.22897366 -0.96909887 0.031041503
0.27369437 0.1202237 0.99654657 0 -0.083405122 -0.190657 -0.97810704 0.033131126
0.2753284 0.11740732 1.0001636 0 -0.071785979 -0.14426504 -0.9869318 0.035301715
0.27816185 0.1149503 1.0046006 0 -0.0018348189 -0.077113636 -0.9970206 0.030722937
0.27983117 0.11356097 1.0079041 0 0.056835584 -0.079243198 -0.99523377 0.032995455
0.28483418 0.10471177 1.0223058 0 0.037819728 -0.32510358 -0.94492191 0.075403318
0.2877748 0.10263276 1.0255436 0 0.035319209 -0.3394008 -0.93997854 0.072445028
0.28877068 0.10111147 1.0280083 0 0.03700415 -0.34607837 -0.93747556 0.067431733
0.29018378 0.097987592 1.0331215 0 -0.024566801 -0.41476208 -0.90959811 0.061461739
0.29153293 0.095685303 1.0368645 0 0.0072934618 -0.44757542 -0.89421636 0.067933574
0.29272509 0.09302479 1.0406625 0 0.019872349 -0.43164766 -0.90182334 0.063713469
0.29456571 0.091293693 1.0439663 0 0.038927894 -0.50151342 -0.86427361 0.067350797
0.30146831 0.081714392 1.0594335 0 0.023872362 -0.33107504 -0.94330239 0.036495831
0.26864597 0.13607699 0.97113228 0 -0.012279735 -0.32282189 -0.94638014 0.025958503
0.27070814 0.13327807 0.97521406 0 -0.040765688 -0.30508643 -0.95145172 0.025738066
0.27223492 0.13168049 0.97819656 0 -0.03241 -0.28261656 -0.95868522 0.026990443
0.27749854 0.12259161 0.99200219 0 -0.066118374 -0.23328139 -0.97015882 0.027442142
0.27779561 0.12036574 0.99472803 0 -0.076110333 -0.19552954 -0.97773999 0.031590302
0.27955472 0.11799085 0.99939525 0 -0.037767414 -0.092167877 -0.99502701 0.030243345
0.28213885 0.11572379 1.0040927 0 0.0017990847 -0.061313797 -0.99811697 0.027781758
0.28320855 0.1139518 1.0069709 0 0.041849166 -0.056626871 -0.997518 0.028150694
0.2891745 0.10532075 1.0209279 0 0.013030303 -0.17836769 -0.98387754 0.048818354
0.29001224 0.10363883 1.0236746 0 0.039090049 -0.24429648 -0.96891236 0.062487017
0.29184508 0.10154271 1.0270324 0 0.005994861 -0.33840317 -0.9409821 0.065891206
0.29309365 0.098989069 1.0312045 0 -0.02586046 -0.36835843 -0.92932403 0.060803246
0.29516163 0.095571518 1.0367553 0 0.0059449887 -0.36550719 -0.93078959 0.05319608
0.29659444 0.093734562 1.0392785 0 0.015855806 -0.34290749 -0.93923539 0.052670728
0.29803813 0.091277301 1.0428395 0 0.025975345 -0.33760899 -0.94092798 0.050522108
0.29878351 0.089435399 1.0467291 0 0.035447229 -0.41779777 -0.9078483 0.061675597
0.30316406 0.081537127 1.0595903 0 0.033900946 -0.30339181 -0.9522627 0.032249697
0.27339506 0.13425177 0.97379601 0 -0.037452549 -0.29782853 -0.95388442 0.025040889
0.27723286 0.13160658 0.97790766 0 -0.036118053 -0.27769294 -0.95999074 0.026201172
0.28206202 0.12342513 0.99120593 0 -0.049326278 -0.23190653 -0.97148657 0.023370873
0.2818366 0.12256294 0.99266791 0 -0.03437081 -0.20479761 -0.97820067 0.024822613
0.29097801 0.11221808 1.0092319 0 0.04712094 -0.055515122 -0.99734539 0.025023255
0.29405981 0.10268408 1.0249388 0 -0.0017129789 -0.1737802 -0.98478293 0.041823961
0.29700044 0.10060507 1.0281765 0 -0.027977083 -0.19084813 -0.98122078 0.031357102
0.29953724 0.094316721 1.0384948 0 0.015694581 -0.29185468 -0.95633382 0.04500635
0.30139276 0.092085481 1.0420771 0 0.01800097 -0.31089807 -0.95027286 0.046726283
0.30202696 0.090513408 1.0446565 0 0.022302525 -0.31779289 -0.94789773 0.048424743
0.27807233 0.13920462 0.96381694 0 -0.037046891 -0.24902356 -0.96778864 0.021797331
0.27838814 0.13868976 0.96595395 0 -0.021970237 -0.25412899 -0.96692085 0.02121656
0.27748638 0.13524109 0.971802 0 -0.022099504 -0.28372577 -0.95865083 0.023075392
0.28112414 0.13209713 0.97676504 0 -0.032816719 -0.29069057 -0.95625418 0.025935061
0.28361657 0.13070273 0.9788937 0 -0.046174183 -0.29008722 -0.95588565 0.024691559
0.28471115 0.12822634 0.98294926 0 -0.040865913 -0.27193785 -0.9614467 0.029654585
0.28542998 0.12431288 0.98944151 0 -0.025476946 -0.16599065 -0.98579812 0.021162413
0.28617689 0.12317193 0.99129003 0 -0.023857243 -0.1657379 -0.98588121 0.020783477
0.29134288 0.11894852 0.99598217 0 0.026946401 -0.029148987 -0.99921179 0.01477557
0.29399604 0.11243391 1.0086215 0 0.024405768 -0.05850666 -0.99798864 0.01825412
0.30106825 0.10283685 1.0241044 0 -0.037265286 -0.089584716 -0.99528176 0.017271245
0.30158973 0.10083371 1.0274149 0 -0.030468943 -0.11078867 -0.99337685 0.022902636
0.31035084 0.085037053 1.0531375 0 0.048809282 -0.16863923 -0.98446864 0.0212216
0.27640978 0.14669645 0.94490564 0 -0.081331663 -0.21650317 -0.97288829 0.027880941
0.27800071 0.14776701 0.94883746 0 -0.069897965 -0.23494846 -0.96949136 0.029662991
0.28054056 0.1383183 0.96184373 0 -0.029216412 -0.18557468 -0.98219568 0.018796489
0.28080729 0.13861388 0.96588123 0 -0.0093832118 -0.20433189 -0.97885674 0.019776668
0.28606784 0.13425016 0.97014987 0 -0.021889795 -0.122132 -0.99227244 0.014385017
0.28607833 0.13209963 0.97488797 0 -0.02604571 -0.17866991 -0.98356426 0.019972272
0.28758678 0.1306864 0.97781247 0 -0.01664893 -0.16051134 -0.98689353 0.015605698
0.2892926 0.12886912 0.98149484 0 0.0049784915 -0.15850413 -0.9873457 0.015434539
0.29001927 0.12454152 0.98867983 0 -0.021875188 -0.074235998 -0.99700075 0.017039502
0.29079854 0.12219012 0.99060017 0 -0.014574495 -0.063193165 -0.99789494 0.015101935
0.29310313 0.11871219 0.99428058 0 0.030736545 -0.028148564 -0.99913108 0.013500016
0.29506508 0.11688745 0.99863744 0 0.047271967 -0.024964312 -0.99856997 0.011896931
0.29708046 0.11558598 1.0021138 0 0.046254523 -0.035218183 -0.9983086 0.010276904
0.30468518 0.10334432 1.0229561 0 -0.023476141 -0.027326714 -0.99935085 0.012688957
0.30628967 0.10089326 1.026927 0 -0.010388994 0.013375852 -0.99985665 0.011319045
0.31369528 0.087167323 1.0492949 0 0.026353866 -0.05182568 -0.9983083 0.011208539
0.31419322 0.086406648 1.0505273 0 0.023207646 -0.048669476 -0.99854535 0.011065367
0.33012751 0.062065303 1.0899627 0 -0.0042521995 -0.10498384 -0.99446481 0.0096403882
0.33062544 0.061304629 1.0911951 0 -0.0048109679 -0.095075883 -0.99545848 0.010257098
0.27775335 0.14938498 0.9441973 0 -0.081411369 -0.17165984 -0.98178667 0.026339848
0.28032666 0.14311397 0.95057976 0 -0.070116282 -0.19102526 -0.9790777 0.030295065
-0.0076370314 0.020046949 1.196002 0 0.042939123 0.99807274 -0.044799592 0.0076896558
-8.8922679e-05 0.0075930953 1.2123249 0 -0.11585839 0.98987603 -0.081988975 0.016747972
0.0009668842 0.0065957904 1.2165098 0 -0.14755301 0.9863171 -0.073531248 0.014991861
-0.068377502 0.12253505 1.0294368 0 -0.021324066 0.99282902 -0.11762516 0.023488637
-0.027388789 0.058237135 1.1317451 0 0.02415997 0.99911714 0.034369003 0.008262706
-0.026630916 0.056676209 1.1342957 0 0.016247837 0.99900997 0.041414846 0.0088809561
-0.027565978 0.054532409 1.1399136 0 -0.017441411 0.99918211 0.036482427 0.0094494633
-0.025746875 0.052561879 1.1430624 0 0.020550283 0.99899817 0.03975495 0.0099740056
-0.021445848 0.047475398 1.1473193 0 0.012773822 0.99982029 0.014010771 0.012342665
-0.017904364 0.039646327 1.1601338 0 0.032704975 0.99920785 -0.0226744 0.01431917
-0.017740093 0.040330648 1.1628783 0 0.033467446 0.99943948 -0.0008144101 0.0095113749
-0.016691945 0.036304414 1.1695323 0 0.020636901 0.99978602 -0.0014304977 0.010662114
-0.01619152 0.035539985 1.1707706 0 0.040612806 0.99917501 -9.4161544e-05 0.010530215
-0.011866949 0.028004408 1.1791257 0 0.088514425 0.99462634 -0.053697493 0.0099198502
0.00029880553 0.011561751 1.2095523 0 -0.05053702 0.99847174 -0.022369158 0.0096267443
0.0010612831 0.0097907186 1.2124543 0 -0.099452741 0.9937138 -0.051400796 0.011437186
0.0025743619 0.0068730116 1.2172141 0 -0.14281309 0.98845404 -0.050626434 0.011718914
0.0062566027 0.0048856735 1.2202371 0 -0.26057044 0.96401572 -0.052695598 0.016672201
0.0095290691 0.0020762682 1.2236943 0 -0.42151129 0.90487391 -0.059425574 0.022777069
0.010252409 -0.00094711781 1.2257686 0 -0.47159678 0.87018275 -0.14275305 0.042844679
-0.069675855 0.12694353 1.0221635 0 0.02217936 0.99323809 -0.11395659 0.021101402
-0.067217417 0.1239239 1.0250641 0 0.0033761188 0.99369073 -0.11210388 0.022674963
-0.065105475 0.12172556 1.0290581 0 -0.014316033 0.99572158 -0.091288075 0.018054938
-0.055722214 0.10636377 1.0535133 0 0.17133372 0.982122 -0.077982113 0.048590686
-0.03996288 0.078181267 1.0974419 0 0.038660716 0.99924475 -0.0039089243 0.014238454
0.011702769 -0.00074362755 1.2253082 0 -0.46351385 0.87753576 -0.12282444 0.038873333
-0.11662129 0.2098 0.88342196 0 0.28971875 0.87495542 -0.38796398 0.1008391
-0.1149505 0.20823097 0.88981438 0 0.18414962 0.94004858 -0.28705007 0.056830872
-0.10913352 0.19836158 0.90195334 0 0.065554239 0.95862794 -0.27701074 0.041799344
-0.10588879 0.19340497 0.90998358 0 0.079277374 0.96239185 -0.25984013 0.04405899
-0.1051243 0.19143081 0.91322565 0 0.041070007 0.96360636 -0.26415148 0.042053636
-0.098603435 0.17985666 0.93206394 0 0.0064608143 0.96913016 -0.24646504 0.042108875
-0.098104261 0.17909408 0.9332993 0 0.038828239 0.966021 -0.25553042 0.043519478
-0.098509081 0.17487431 0.94039726 0 0.1461636 0.94192886 -0.30233428 0.06509456
-0.089334287 0.16424924 0.96133137 0 -0.031011179 0.98597431 -0.16399081 0.028029278
-0.087574176 0.16058922 0.9634099 0 -0.082311854 0.98274493 -0.16564193 0.034269579
-0.086578898 0.15955442 0.96701193 0 -0.067155004 0.98495728 -0.15921497 0.033758756
-0.085581116 0.15851581 0.97062004 0 -0.047694296 0.98585349 -0.16068009 0.033831026
0.021973334 -0.0055471063 1.232502 0 -0.77390182 0.60670269 -0.18162547 0.050090268
-0.11549131 0.21412152 0.87609375 0 0.42704159 0.82497019 -0.37021559 0.091889456
0.026098453 -0.0058009624 1.2325861 0 -0.87023294 0.46017125 -0.17588927 0.041328803
0.02853439 -0.0048247576 1.2333534 0 -0.89424449 0.42495459 -0.14050052 0.037652574
-0.11288733 0.21740097 0.87038851 0 0.6022194 0.66650635 -0.43943271 0.11261564
-0.11438905 0.21707374 0.874964 0 0.54608989 0.76499921 -0.34141171 0.091834597
0.031857662 -0.0052753091 1.2322068 0 -0.92603707 0.34005412 -0.16376367 0.033423439
-0.11001015 0.21905357 0.86738431 0 0.73018616 0.53129023 -0.42960316 0.10865146
-0.11007445 0.22018307 0.86940217 0 0.71988189 0.60208714 -0.34534183 0.093341127
0.037427075 -0.0047026277 1.230788 0 -0.96853036 0.18667513 -0.16462485 0.022422938
-0.10325751 0.2208336 0.86384672 0 0.84934926 0.32369271 -0.41692781 0.093743801
0.042386107 -0.0041350126 1.2300138 0 -0.9792574 0.091566503 -0.18074968 0.013662449
-0.10099056 0.22247857 0.86188149 0 0.87009495 0.23893374 -0.43109798 0.077594884
0.047287352 -0.0031741261 1.2287815 0 -0.9767819 0.05245674 -0.2077148 0.011882436
-0.096666448 0.22348243 0.86109871 0 0.89899522 0.18654685 -0.39624229 0.070442878
0.051742062 -0.00222224 1.2278237 0 -0.97781444 0.031486001 -0.20709309 0.010662841
-0.10200251 0.23988199 0.83185345 0 -0.26525211 0.045765206 -0.96309245 0.0099881487
-0.092700101 0.22647786 0.85352576 0 0.62567139 0.12234679 -0.77043277 0.086585157
-0.093354501 0.22263932 0.86000603 0 0.88833153 0.16076969 -0.43013987 0.064605609
0.056504726 -0.0021007061 1.2258329 0 -0.96867585 0.026920229 -0.24686493 0.012962481
-0.099585243 0.24022114 0.8310861 0 -0.26735994 0.048697118 -0.96236533 0.01003078
-0.087726437 0.22642219 0.85418427 0 0.70241016 0.14669703 -0.69649118 0.076426126
0.060680222 -0.0015681982 1.2242062 0 -0.96012479 0.05304772 -0.27449274 0.014424603
-0.083304591 0.22676921 0.85372633 0 0.73093873 0.16454211 -0.66231 0.062579773
-0.08176937 0.22665846 0.85622454 0 0.84894556 0.15403168 -0.50553513 0.041511912
0.06596268 -0.000230968 1.2238736 0 -0.96368951 0.060753293 -0.26002249 0.014138077
-0.078277268 0.22740972 0.85272676 0 0.77125883 0.1550826 -0.61734051 0.057351444
0.070885062 -0.00028347969 1.2218821 0 -0.94951582 0.080480188 -0.30322051 0.01609185
-0.073249362 0.22803324 0.85098892 0 0.75473297 0.1155713 -0.64577192 0.06259793
0.076366194 -0.00014770031 1.2209234 0 -0.94341403 0.11491338 -0.31107044 0.024595706
0.078858122 -0.0017288327 1.2214129 0 -0.92004895 0.11014704 -0.37600198 0.029913913
-0.068908699 0.22987807 0.84809971 0 0.74000216 0.041691341 -0.6713112 0.066420645
0.080715373 0.00051522255 1.2198448 0 -0.9550702 0.092889547 -0.28144747 0.020786328
0.081758857 -0.0013218522 1.2204921 0 -0.92738217 0.10423799 -0.35930037 0.031668816
-0.065205015 0.23069274 0.84654158 0 0.72199506 0.040541917 -0.69070935 0.074210852
0.085622132 0.0017483234 1.2189367 0 -0.95889187 0.084677987 -0.27084318 0.020549184
0.086109996 -0.00071132183 1.2191107 0 -0.92610914 0.10151997 -0.36333957 0.036824483
-0.060343511 0.23167539 0.84438354 0 0.70476902 0.070918627 -0.70588326 0.07569287
0.089166425 0.0019117594 1.2183704 0 -0.9557538 0.078253962 -0.2835682 0.024929021
0.091155335 0.00067639351 1.2183228 0 -0.93635279 0.074151717 -0.34313995 0.0357132
-0.055732735 0.23195845 0.84285969 0 0.75131017 0.061202992 -0.65710521 0.070805758
0.096262574 0.00071316957 1.2158878 0 -0.93715143 0.072349876 -0.34133956 0.031594943
-0.049818493 0.23167789 0.84295285 0 0.79532886 0.068825878 -0.60225832 0.055398226
0.10079817 0.0035437942 1.214678 0 -0.95842421 0.073854379 -0.27562359 0.023789935
0.1006137 0.0013236403 1.2145065 0 -0.92754835 0.10134411 -0.35969916 0.036055762
-0.045289896 0.23146462 0.84126294 0 0.7464143 0.094104566 -0.65879446 0.057175949
0.10443308 0.0040537715 1.2135241 0 -0.94494843 0.094364859 -0.3133173 0.033345137
0.10495557 0.0023860335 1.2136705 0 -0.92844427 0.092875034 -0.35967422 0.040274538
-0.050423317 0.24656379 0.81640857 0 -0.26008451 0.14376588 -0.95482326 0.0074447952
-0.049924128 0.24580121 0.817644 0 -0.22159185 0.14722337 -0.96396178 0.0093894247
-0.046976201 0.24371696 0.82088983 0 -0.02836645 0.16240366 -0.98631662 0.02803614
-0.041174047 0.23337054 0.83870804 0 0.70341748 0.077417202 -0.70654833 0.066183209
0.10927965 0.0047338009 1.2119855 0 -0.94616991 0.089616276 -0.3110168 0.03353142
0.11002842 0.0036642551 1.2127383 0 -0.92812234 0.096887559 -0.35944626 0.045652285
-0.045011736 0.24748951 0.81441182 0 -0.39031836 0.21465185 -0.89530778 0.024072623
-0.04441563 0.2460776 0.81737709 0 -0.30781472 0.218513 -0.92601413 0.028618895
-0.043875806 0.24381894 0.82046312 0 -0.052723877 0.17786945 -0.98264068 0.033229515
-0.03590969 0.23527849 0.83410335 0 0.58777422 0.092639625 -0.80370349 0.080039136
-0.036658324 0.23417258 0.83650482 0 0.66025972 0.097080797 -0.74473649 0.073744506
0.11502333 0.0038281083 1.2114661 0 -0.89772445 0.094518378 -0.43029889 0.05279788
-0.040855132 0.24861956 0.81315273 0 -0.45616212 0.22334479 -0.86141348 0.020166617
-0.039181702 0.24711531 0.81611848 0 -0.31697449 0.2278474 -0.92065889 0.032582182
-0.038024388 0.24455667 0.81874496 0 -0.17680855 0.22170269 -0.95895076 0.048825804
-0.031888135 0.23613095 0.83332002 0 0.59158802 0.099102356 -0.80012637 0.083149865
-0.032445766 0.23550737 0.83538598 0 0.64540589 0.091730773 -0.75831169 0.083426856
0.11947909 0.0040148497 1.2100048 0 -0.88699269 0.079499587 -0.45488891 0.049628858
-0.035681032 0.24864966 0.81560278 0 -0.35974392 0.21970288 -0.90681589 0.037697311
-0.033423699 0.2447859 0.81798136 0 -0.18247546 0.21854199 -0.95861471 0.050393831
-0.030974947 0.24346423 0.81999177 0 -0.047567826 0.19504102 -0.9796409 0.068085819
-0.027727671 0.23694962 0.83193135 0 0.54881072 0.092985474 -0.83075899 0.0867818
-0.026855044 0.23648363 0.83394068 0 0.64243239 0.077667475 -0.76239645 0.078641154
0.12441611 0.0047075748 1.2084376 0 -0.8867541 0.084229238 -0.4545027 0.051483329
-0.029936872 0.24812019 0.81601501 0 -0.27421576 0.19499126 -0.94169217 0.047086462
-0.028883629 0.24534172 0.81732666 0 -0.18241313 0.20242463 -0.96215898 0.047401011
-0.027586825 0.24373144 0.81926465 0 -0.079850495 0.19074801 -0.97838593 0.064650998
-0.023981743 0.23747361 0.83000129 0 0.47535774 0.13027215 -0.87009442 0.090123005
-0.022117145 0.23703563 0.83295065 0 0.65342367 0.082110338 -0.75252604 0.080480441
0.12838091 0.0054303408 1.2069001 0 -0.9005 0.078829333 -0.42765123 0.047417559
-0.023905225 0.24556637 0.81588894 0 -0.21613187 0.18887003 -0.95792228 0.041694477
-0.021934696 0.24390012 0.81851584 0 -0.09389177 0.18049085 -0.97908497 0.059674326
-0.018806748 0.24084198 0.82337713 0 0.12936956 0.1566907 -0.97913814 0.065112524
-0.018563487 0.23883802 0.82810616 0 0.37301746 0.10022035 -0.92239571 0.092160732
-0.019375317 0.23734128 0.83123672 0 0.55155891 0.075860269 -0.83067918 0.081896849
0.13380638 0.0066300035 1.2052245 0 -0.92145783 0.061547719 -0.38357195 0.039038662
-0.018267266 0.24775428 0.81566405 0 -0.1915015 0.17757644 -0.96529466 0.049807675
-0.017367281 0.24507612 0.81851196 0 -0.11168528 0.17706156 -0.97784233 0.059613377
-0.015644483 0.24278289 0.82246923 0 0.06243474 0.1602933 -0.98509288 0.061111324
-0.013895072 0.24010885 0.82680142 0 0.24926119 0.094866216 -0.96377856 0.077191621
0.13869011 0.0063737631 1.20486 0 -0.86559981 0.081147298 -0.49411741 0.063108422
-0.015032046 0.2479856 0.81500965 0 -0.21296261 0.17496879 -0.96126628 0.043580897
-0.01338198 0.24638885 0.81754667 0 -0.11611663 0.1691568 -0.97872514 0.053164709
-0.011737727 0.24387705 0.82161593 0 0.0098632844 0.16123597 -0.98686659 0.060784597
-0.0098137185 0.24127781 0.8254537 0 0.17311396 0.11131612 -0.97859102 0.065838858
0.14345495 0.0067644119 1.2038126 0 -0.84843159 0.08056356 -0.52313799 0.061236378
-0.01098799 0.2482748 0.81419158 0 -0.21549678 0.15055247 -0.96482903 0.043382339
-0.0078061894 0.24705184 0.81597614 0 -0.11864177 0.17156471 -0.97800291 0.043406252
-0.0066957697 0.24487066 0.81953633 0 -0.05688908 0.15187626 -0.98676103 0.042069908
-0.0052127764 0.24268603 0.82307124 0 0.083205052 0.13776065 -0.98696446 0.043106258
0.14820731 0.0077813268 1.2025542 0 -0.84401494 0.080319054 -0.53027129 0.06078067
-0.00094214827 0.24384165 0.82078397 0 0.01070293 0.14836608 -0.98887455 0.047485948
0.15326127 0.0083711147 1.2011495 0 -0.83926058 0.092022516 -0.53588575 0.054110602
0.15827724 0.0091044307 1.2006228 0 -0.81347144 0.087086886 -0.57504797 0.055768553
0.15867566 0.0069723129 1.2002561 0 -0.76327789 0.075443782 -0.64165026 0.064064845
0.16287753 0.0099585652 1.1988132 0 -0.81362706 0.06986551 -0.57717395 0.055420943
0.16351652 0.0073183775 1.1992768 0 -0.73664159 0.060271982 -0.67359215 0.061550286
0.16748255 0.010562956 1.1974211 0 -0.82572788 0.075688101 -0.55896771 0.05145485
0.16728748 0.0078474879 1.1980796 0 -0.72731805 0.068547323 -0.68286872 0.057306737
0.17208993 0.011042476 1.196238 0 -0.80919081 0.05137822 -0.58529532 0.053466275
0.17245416 0.0089054108 1.1958818 0 -0.73934466 0.066392004 -0.67004597 0.054424901
0.17809314 0.010165215 1.1952591 0 -0.73350716 0.032648135 -0.67889702 0.053586699
0.18701497 -0.0048709512 1.2177434 0 0.21030954 0.10621445 -0.97184795 0.020127757
0.18718731 -0.0035325885 1.2193923 0 0.2278827 0.10889839 -0.96757972 0.019914653
0.18154073 0.012368441 1.1932378 0 -0.81149423 0.043825455 -0.58271462 0.052054364
0.18221095 0.010534823 1.1943004 0 -0.71558487 0.067316473 -0.69527459 0.063950069
0.19095731 -0.0031521916 1.2145405 0 0.18842232 0.11550769 -0.9752717 0.01408437
0.19009525 -0.0031245947 1.2184691 0 0.26365066 0.10715414 -0.9586482 0.016487658
0.18590264 0.012980461 1.191853 0 -0.80809397 0.051311381 -0.58681446 0.054134607
0.18695939 0.011357188 1.1928103 0 -0.73910809 0.057012957 -0.67116976 0.059346829
0.19567001 -0.0011587739 1.2108142 0 0.093047917 0.11729226 -0.98872882 0.019462148
0.19198421 0.011749983 1.1911805 0 -0.7288534 0.054928072 -0.68246293 0.063108131
0.19673264 0.012572289 1.1896904 0 -0.73412347 0.061497331 -0.67622548 0.065644771
0.19898836 0.014816463 1.1876988 0 -0.79871887 0.077923797 -0.59663737 0.055040155
0.20134994 0.013438761 1.188249 0 -0.70887232 0.076156221 -0.70121354 0.061644997
0.2101737 0.00087618828 1.2062099 0 0.016424892 0.069743685 -0.99742973 0.024129532
0.21092248 -0.00026768446 1.208063 0 0.17693193 0.068438306 -0.98184079 0.0094163436
0.20590916 0.013744593 1.1873605 0 -0.64346331 0.12206812 -0.75568134 0.065845005
0.21257526 0.0020457506 1.2040536 0 -0.092191383 0.071275659 -0.99318707 0.032741219
0.21426681 0.0016826391 1.2071242 0 0.078690112 0.077005371 -0.99392051 0.011294216
0.2113588 0.013634801 1.1864252 0 -0.56847507 0.09620142 -0.81705654 0.073966265
0.21822608 0.0022835732 1.2031889 0 -0.03061017 0.067897819 -0.99722266 0.023219757
0.21877474 0.0010421872 1.2052218 0 0.059137847 0.07049676 -0.9957574 0.011947285
0.21644869 0.014023781 1.1851447 0 -0.57763082 0.053318109 -0.81455499 0.070725314
0.21868718 0.012061834 1.1867805 0 -0.50186455 0.033932582 -0.86428034 0.072333202
0.22467741 0.0029110909 1.2016056 0 -0.082550511 0.01030043 -0.99653363 0.024137989
0.22056082 0.013945103 1.1840307 0 -0.57202917 0.061366744 -0.81793445 0.070986874
0.22207531 0.012329042 1.1860534 0 -0.51182503 0.027146121 -0.85866076 0.066160724
0.22638193 0.006758213 1.1950243 0 -0.3403146 -0.031528201 -0.93978298 0.0488589
0.22775894 0.0040095448 1.1995122 0 -0.084639505 -0.017960351 -0.99624974 0.022541104
0.22880253 0.0026572943 1.20169 0 -0.010221581 -0.026335811 -0.99960089 0.013706756
0.22572228 0.015128314 1.1832967 0 -0.61396772 0.052030381 -0.78761446 0.069045439
0.22629559 0.012534678 1.1853609 0 -0.54670656 0.023975797 -0.83698088 0.069288865
0.22753552 0.0098341703 1.1897795 0 -0.44023627 -0.014770196 -0.89776051 0.057760391
0.22918963 0.0078113079 1.1930294 0 -0.37138012 -0.031704582 -0.92793947 0.051105343
0.23094031 0.0049555898 1.1976659 0 -0.16504106 -0.046243265 -0.98520207 0.026891893
0.23386201 0.0039912462 1.2013812 0 -0.035334658 -0.069085769 -0.99698478 0.010221069
0.23044276 0.015271187 1.1817384 0 -0.62577105 0.013507138 -0.77988988 0.070020281
0.23145989 0.013354361 1.183562 0 -0.5969829 0.01473645 -0.80211854 0.066670693
0.23108611 0.010054767 1.189117 0 -0.47567996 -0.01745102 -0.87944525 0.057890337
0.23321781 0.0084111691 1.1916926 0 -0.42064878 -0.025889171 -0.90685409 0.048594341
0.23515961 0.0052144527 1.1968842 0 -0.17060298 -0.064146064 -0.98324966 0.025049204
0.23750475 0.0038782358 1.1989274 0 -0.12235075 -0.095193245 -0.98791116 0.018037977
0.23570544 0.015698493 1.1792872 0 -0.64943022 -0.013316303 -0.76030463 0.057283331
0.2362009 0.013853014 1.1823359 0 -0.60758728 -0.038797554 -0.7933048 0.059904806
0.23974496 0.016490221 1.1782789 0 -0.66474164 -0.010051333 -0.74700576 0.057112258
0.24044272 0.015114307 1.1798742 0 -0.63215387 -0.0061427373 -0.77481854 0.050842635
0.24501985 0.016589046 1.1770272 0 -0.64939952 -0.0019448173 -0.760445 0.044018906
0.24334347 0.015521228 1.1789532 0 -0.61873358 -0.011517384 -0.7855165 0.044828653
0.25001037 0.018380225 1.1755683 0 -0.7175253 0.063876607 -0.69359738 0.044953562
0.25132051 0.016640484 1.1764209 0 -0.67869723 0.044398934 -0.73307484 0.044047751
0.25444725 0.017911792 1.1740344 0 -0.69884628 0.074611731 -0.71136969 0.045133051
0.25543618 0.016884863 1.1756718 0 -0.68255985 0.084985189 -0.72587168 0.047525115
0.25971648 0.019378364 1.1724453 0 -0.699543 0.067413725 -0.71140343 0.048240401
0.25959051 0.017552972 1.1746985 0 -0.64021003 0.097233832 -0.76202142 0.044792734
0.26460057 0.018273592 1.173371 0 -0.59573382 0.10945621 -0.79568863 0.044496011
0.26670587 0.015635252 1.1768334 0 -0.55861914 0.11173975 -0.82186306 0.044123169
0.26954451 0.01420182 1.1789989 0 -0.50460339 0.1214763 -0.85476249 0.037685942
0.27154124 0.011151612 1.1839406 0 -0.32336181 0.12588476 -0.93786472 0.023758132
0.27281281 0.007999599 1.1891124 0 -0.17837179 0.13005847 -0.97532982 0.014494199
0.26953402 0.019290268 1.1716821 0 -0.60620624 0.1236176 -0.78564161 0.051298488
0.27120316 0.01620388 1.1755103 0 -0.55404359 0.11849378 -0.82401145 0.047646694
0.27254418 0.013651371 1.1796728 0 -0.46607319 0.1311821 -0.87496686 0.038545225
0.2748915 0.011091888 1.183764 0 -0.3076036 0.13551536 -0.94181502 0.023625795
0.27655765 0.0086291432 1.1877494 0 -0.17719978 0.14777288 -0.97301763 0.015305058
0.27414745 0.019763768 1.1702833 0 -0.58284074 0.093103886 -0.807235 0.050791945
0.27617845 0.017130852 1.1735475 0 -0.54230392 0.089369982 -0.83541566 0.046692923
0.27736688 0.014347851 1.1781087 0 -0.42351091 0.12258782 -0.89755827 0.034253258
0.27904269 0.011787832 1.1822562 0 -0.29959026 0.13651486 -0.94425076 0.023622358
0.28062347 0.0093730688 1.1861684 0 -0.18733507 0.13663274 -0.97274715 0.015825165
0.27862775 0.020920157 1.1698406 0 -0.57472038 0.069640286 -0.81538129 0.053248849
0.28014907 0.017354965 1.1728446 0 -0.54022527 0.088800773 -0.83682197 0.050919533
0.28194618 0.014609694 1.1772921 0 -0.40527406 0.11425391 -0.90702754 0.036504459
0.2833938 0.012398362 1.1808748 0 -0.30285078 0.11737347 -0.94578272 0.026176766
0.28512916 0.010352135 1.1841571 0 -0.14596973 0.12441898 -0.98143405 0.01345477
0.28316295 0.022035956 1.1686625 0 -0.58688009 0.067513533 -0.80685425 0.055470169
0.28485432 0.018695414 1.1713271 0 -0.50156504 0.064231522 -0.86273223 0.048086248
0.28696612 0.015737951 1.174989 0 -0.40073487 0.078606196 -0.91281575 0.039263517
0.28789949 0.013377428 1.1788638 0 -0.26307967 0.095744371 -0.96001148 0.025260093
0.28950363 0.011894226 1.1836542 0 -0.11884222 0.10816725 -0.98700374 0.015521811
0.28797603 0.022651672 1.1672344 0 -0.55547541 0.059200529 -0.82942283 0.054965492
0.28980923 0.020011187 1.1698306 0 -0.49196658 0.078996301 -0.86702275 0.047714632
0.29179925 0.016491771 1.1733279 0 -0.41206765 0.0788064 -0.9077388 0.04173265
0.29340574 0.015195251 1.1784886 0 -0.27031329 0.0783237 -0.9595812 0.02653137
0.29450715 0.013194263 1.1825281 0 -0.14978366 0.093378536 -0.98429936 0.018587857
