# .PCD v0.7 - Point Cloud Data file format
VERSION 0.7
FIELDS x y z rgb normal_x normal_y normal_z curvature
SIZE 4 4 4 4 4 4 4 4
TYPE F F F F F F F F
COUNT 1 1 1 1 1 1 1 1
WIDTH 509
HEIGHT 1
VIEWPOINT 0 0 0 1 0 0 0
POINTS 509
DATA ascii
0.66502291 -0.094467148 1.5870001 7.3749385e-39 0.043348283 -0.88018709 -0.47264317 0.0067192591
0.6758216 -0.094176196 1.5863334 7.2831044e-39 0.017170692 -0.85518664 -0.51803565 0.0094107352
0.68532008 -0.09359429 1.585 7.3745798e-39 -0.023109207 -0.86534756 -0.5006392 0.0079570254
0.69391233 -0.094207481 1.5844288 7.1912689e-39 -0.096749216 -0.84662509 -0.52332169 0.0058902837
0.70607311 -0.096233107 1.5850002 7.0068833e-39 0.0071017072 -0.82935506 -0.55867678 0.012747148
0.71461332 -0.096489534 1.5830002 7.2816709e-39 0.085878558 -0.83395338 -0.54511154 0.0095192427
0.72513455 -0.094338104 1.5867144 7.2820226e-39 0.06711103 -0.81051856 -0.58185542 0.010759859
0.73429549 -0.094851427 1.5858001 7.0990705e-39 0.049601313 -0.79894102 -0.59936041 0.0087830611
0.74433661 -0.095200583 1.5866001 7.0075937e-39 -0.025006751 -0.79054892 -0.61188811 0.0076933056
0.75475812 -0.09359429 1.5850002 7.0065189e-39 -0.082629725 -0.84072655 -0.53511786 0.010142388
0.76510352 -0.095450677 1.5858001 6.8224892e-39 -0.13278788 -0.83931619 -0.52717716 0.0097637028
0.77470636 -0.096651576 1.5821429 6.8221249e-39 -0.1221152 -0.86096269 -0.49379259 0.0077786925
0.78447723 -0.09636572 1.5810002 6.7306467e-39 -0.087904081 -0.85221082 -0.51576114 0.0088614486
0.79351151 -0.096150622 1.5810002 7.0065133e-39 -0.029269375 -0.82671511 -0.56185889 0.0041661537
0.80495489 -0.096666858 1.5810001 6.9132429e-39 -0.027698997 -0.82155627 -0.56945413 0.0032804403
0.81459147 -0.09636572 1.5810002 6.8206914e-39 -0.0066453856 -0.82547426 -0.56440067 0.0021127749
0.82513148 -0.097871438 1.5810001 6.6388224e-39 -0.031482328 -0.82662386 -0.56187356 0.0021691369
0.83416581 -0.097871438 1.5810001 6.9146835e-39 -0.07312721 -0.83075786 -0.55180955 0.0015819382
0.25747716 -0.088837147 1.5810001 7.0987216e-39 0.044015829 -0.80287343 -0.59452242 0.018091323
0.26952288 -0.088837147 1.5810001 7.1905543e-39 0.033664741 -0.84244388 -0.53773129 0.020408038
0.32674003 -0.088837147 1.581 7.0054413e-39 0.0052794106 -0.82888228 -0.55939811 0.0068164803
0.33728004 -0.088837147 1.5810001 7.1887522e-39 -0.096833348 -0.81474912 -0.57167053 0.0067020492
0.34179717 -0.088837147 1.5810001 7.0972754e-39 -0.1238495 -0.81282431 -0.56919062 0.0064225532
0.44719717 -0.088837147 1.5810001 6.7292132e-39 0.013017499 -0.83189595 -0.55477893 0.0080590947
0.68208861 -0.088837147 1.5810001 7.1901913e-39 -0.025649715 -0.85200179 -0.52291024 0.010082374
0.72575438 -0.088837147 1.5810001 7.0987104e-39 0.10341786 -0.81419861 -0.57130146 0.0079944981
0.73177719 -0.088837147 1.5810001 7.0990691e-39 0.049229007 -0.8312282 -0.55374742 0.010838556
0.74633241 -0.087833337 1.581 7.0976314e-39 -0.044417962 -0.85014319 -0.52467471 0.0061619431
-0.31312001 -0.11096001 1.5960001 1.0237023e-38 0.0057484265 -0.88105851 -0.47297239 0.012923006
-0.30552003 -0.11096001 1.5960001 1.0054786e-38 -0.014814437 -0.87117511 -0.49074888 0.0080865612
-0.29792002 -0.11096001 1.5960001 9.8711121e-39 -9.8231976e-05 -0.86590904 -0.50020146 0.0077330456
-0.28272003 -0.11096001 1.5960001 9.9618714e-39 -0.0044676382 -0.8705917 -0.49198592 0.0061691916
-0.27664 -0.11096001 1.5960001 1.0053707e-38 -0.0023700504 -0.86835957 -0.49592945 0.0057134144
-0.26447999 -0.11096001 1.5960001 1.0144106e-38 -0.018447172 -0.86985898 -0.49295539 0.0056649442
-0.24472 -0.11096001 1.5960001 1.0145538e-38 0.0091391196 -0.82705945 -0.56204015 0.0046291426
-0.23560001 -0.11096001 1.5960001 1.0146617e-38 0.019518131 -0.82993394 -0.55752009 0.0067415987
-0.22496001 -0.11096001 1.5960001 1.0330655e-38 0.024890974 -0.83535451 -0.54914778 0.0080273086
-0.21432002 -0.11096001 1.5960001 1.0423571e-38 -0.0018260446 -0.8416537 -0.54001456 0.0072684879
-0.20520002 -0.11096001 1.5960001 1.0424289e-38 -0.038349289 -0.82488263 -0.56400174 0.0097478731
-0.19456001 -0.11096001 1.5960001 1.0515044e-38 -0.04242656 -0.81176281 -0.58244407 0.0095985038
-0.18392001 -0.11096001 1.5960001 1.0330291e-38 -0.0052116807 -0.80032885 -0.59953862 0.0085173575
-0.17480002 -0.11096001 1.5960001 1.0330292e-38 0.034336619 -0.81725645 -0.57525033 0.0096886093
-0.16872001 -0.11096001 1.5960001 1.014662e-38 0.060073443 -0.82639837 -0.55987227 0.011028299
-0.15200001 -0.11096001 1.5960001 1.0237378e-38 0.029298551 -0.8554495 -0.51705682 0.0084096147
-0.14440002 -0.11096001 1.5960001 1.0328495e-38 0.044573214 -0.86764884 -0.49517539 0.0088025751
-0.13832001 -0.11096001 1.5960001 1.0236656e-38 0.042886034 -0.87625843 -0.47992915 0.0080572246
-0.11248001 -0.11096001 1.5960001 9.4086892e-39 -0.034198664 -0.84737903 -0.52988601 0.0065716263
-0.10488001 -0.11096001 1.5960001 9.5927218e-39 -0.040541749 -0.84108204 -0.53938609 0.0060357442
-0.098800004 -0.11096001 1.5960001 9.7767543e-39 -0.017716527 -0.83818495 -0.54509819 0.0072980314
-0.082080007 -0.11096001 1.5960001 1.0051183e-38 -0.10174274 -0.84141332 -0.5307278 0.0090445857
-0.076000005 -0.11096001 1.5960001 9.7763885e-39 -0.095977388 -0.84197927 -0.53090417 0.0097042909
-0.068400003 -0.11096001 1.5960001 9.4086878e-39 -0.052771259 -0.8541823 -0.51728886 0.010106637
-0.053200003 -0.11096001 1.5960001 9.4079732e-39 0.030081961 -0.84180844 -0.53893751 0.0090912227
-0.044080004 -0.11096001 1.5960001 9.2253742e-39 0.013359648 -0.83499956 -0.55008835 0.010534635
-0.034960002 -0.11172001 1.5960001 9.1321023e-39 -0.087084129 -0.8224166 -0.56218082 0.0083444808
-0.025840001 -0.11298668 1.5960001 9.0384676e-39 -0.082767934 -0.84574181 -0.527134 0.0091488576
-0.016720001 -0.114 1.5960001 8.5778454e-39 -0.029439053 -0.88386768 -0.4668096 0.0094601754
-0.00152 -0.11400001 1.5960001 8.0250275e-39 0.087234765 -0.86038113 -0.50212985 0.01001781
0.0045600007 -0.11197335 1.5960001 8.2076181e-39 0.048637424 -0.84307617 -0.53559029 0.012127893
0.015200001 -0.11096001 1.5960001 8.2086915e-39 -0.023916885 -0.84488279 -0.53441662 0.013139592
0.024320003 -0.11096001 1.5960001 8.2083342e-39 -0.0028275717 -0.86483562 -0.50204718 0.011703631
0.034960002 -0.11400001 1.5960001 7.7477133e-39 0.085888192 -0.87327981 -0.47958905 0.012590308
0.044080004 -0.11096001 1.5960001 7.7487881e-39 0.23763008 -0.8322885 -0.50082713 0.019788239
0.076000005 -0.11096001 1.5960001 7.377849e-39 -0.05184748 -0.85286623 -0.51954889 0.02097485
0.083600007 -0.11096001 1.5960001 7.4689699e-39 0.025078004 -0.86963242 -0.49306241 0.017259939
0.114 -0.11096001 1.5960001 7.6519052e-39 -0.068064302 -0.85573351 -0.51292044 0.0061917435
0.12616001 -0.11096001 1.5960001 7.1923577e-39 -0.062486049 -0.87723899 -0.47596985 0.010875439
0.13528001 -0.11096001 1.5960001 7.1005152e-39 -0.052978609 -0.87148345 -0.48755494 0.015748903
0.14136001 -0.11096001 1.5960001 7.1916319e-39 -0.050258987 -0.86335939 -0.50208032 0.01616466
0.15656 -0.11096001 1.5960001 7.190913e-39 0.071516156 -0.87930876 -0.4708519 0.014237867
0.16568001 -0.11096001 1.5960001 7.3745812e-39 0.14897537 -0.84782565 -0.5089184 0.011969057
0.23256001 -0.11096001 1.5960001 7.0958433e-39 0.0090872357 -0.80904454 -0.58767712 0.0075295535
0.47272003 -0.11096001 1.5960001 6.7284943e-39 0.037665442 -0.81627029 -0.57644093 0.012832455
0.51680005 -0.11096001 1.5960001 6.3615083e-39 0.0001918457 -0.85601205 -0.51695585 0.010174533
0.56392002 -0.11096001 1.5960001 6.6377378e-39 -0.028705997 -0.84639466 -0.53178197 0.020253502
0.57456005 -0.11096001 1.5960001 7.0050826e-39 0.035622302 -0.82442224 -0.56485313 0.018027792
0.62472004 -0.11096001 1.5960001 7.4671426e-39 0.055440091 -0.83559477 -0.54654163 0.013511755
0.84816003 -0.11096001 1.5960001 7.3752945e-39 -0.087595105 -0.8661685 -0.49201551 0.0044155191
0.85272008 -0.11096001 1.5960001 7.5596801e-39 -0.13446721 -0.87960273 -0.45630866 0.0062258639
-0.31160003 -0.10792001 1.5960001 1.0053713e-38 0.020960927 -0.8735469 -0.4862884 0.010682425
-0.30552003 -0.10792001 1.5960001 1.0145907e-38 -0.016020304 -0.87678671 -0.48061252 0.0089334501
-0.29488003 -0.10792001 1.5960001 9.9629504e-39 0.00039353521 -0.87159991 -0.4902178 0.007470171
-0.28424004 -0.10792001 1.5960001 1.0329934e-38 -0.0037152257 -0.87107974 -0.49112755 0.0065963585
-0.27512002 -0.10792001 1.5960001 1.0237379e-38 -0.0044245995 -0.87293732 -0.48781228 0.0058230055
-0.266 -0.10792001 1.5960001 1.0144826e-38 -0.025934106 -0.86673552 -0.49809334 0.0051355138
-0.25536001 -0.10792001 1.5960001 1.0237379e-38 -0.0067912713 -0.85477519 -0.51895398 0.0043816525
-0.24472003 -0.10792001 1.5960001 1.0330648e-38 0.0095438082 -0.83733773 -0.54660267 0.0050334204
-0.23559999 -0.10792001 1.5960001 1.0148414e-38 0.019730147 -0.82386565 -0.5664416 0.0071663484
-0.22394669 -0.10690668 1.5960001 1.0515048e-38 0.025463937 -0.83066624 -0.55618811 0.0086731976
-0.21432002 -0.10792001 1.5960001 1.0423931e-38 -0.0038702718 -0.83803034 -0.54560989 0.0085578077
-0.20520002 -0.10792001 1.5960001 1.0424289e-38 -0.016094049 -0.82857913 -0.55964059 0.0069622425
-0.19456001 -0.10792001 1.5960001 1.0514685e-38 -0.039488364 -0.7989099 -0.60015303 0.0093294298
-0.18696001 -0.10792001 1.5960001 1.0421769e-38 -0.0061056772 -0.79716927 -0.60372502 0.009470867
-0.17479999 -0.10792001 1.5960001 1.0329932e-38 0.034347568 -0.81725675 -0.5752492 0.0096882069
-0.16568001 -0.10792001 1.5960001 1.0054782e-38 0.055087823 -0.82962269 -0.55560011 0.010854305
-0.15504001 -0.10792001 1.5960001 1.014554e-38 0.020789392 -0.84387326 -0.53613967 0.0079517765
-0.14440002 -0.10792001 1.5960001 1.0420689e-38 0.032106183 -0.85192579 -0.52267736 0.0076337112
-0.13528001 -0.10792001 1.5960001 1.032849e-38 0.022505309 -0.87392759 -0.48553482 0.0097704977
-0.12464001 -0.10640001 1.596 9.6856349e-39 0.01793352 -0.8467682 -0.53165966 0.0095989229
-0.114608 -0.10670401 1.5960001 9.5927246e-39 -0.011765483 -0.85045218 -0.52592075 0.008461793
-0.10488001 -0.10792001 1.5960001 9.7767543e-39 -0.040628787 -0.84204876 -0.5378691 0.0066079157
-0.095000006 -0.10716002 1.5960001 9.9604267e-39 -0.035030067 -0.83387536 -0.55084008 0.0076690973
-0.085424006 -0.10731201 1.5960001 1.0051902e-38 -0.086939 -0.84031087 -0.53508806 0.010656309
-0.077520005 -0.10792001 1.5960001 9.9618546e-39 -0.11423647 -0.83099455 -0.54442453 0.010105061
-0.044080004 -0.10792001 1.5960001 9.5012408e-39 0.021015638 -0.83468741 -0.55032283 0.010987306
-0.038000003 -0.10792001 1.5960001 9.3168509e-39 -0.04776803 -0.82740897 -0.55956465 0.012832902
0.0060800007 -0.10792001 1.5960001 8.4834875e-39 0.029976513 -0.8564412 -0.51537359 0.013444099
0.010640001 -0.10792001 1.5960001 8.3923695e-39 -0.0094812876 -0.85166109 -0.52400714 0.016362993
0.04610667 -0.10690668 1.5960001 7.9335367e-39 0.22195567 -0.8499245 -0.47787443 0.017260456
0.05455111 -0.10521778 1.596 7.9328179e-39 0.12780333 -0.84196949 -0.5241695 0.028968643
0.06498 -0.10526001 1.596 7.6555121e-39 -0.044141017 -0.83720791 -0.54510045 0.021920528
0.073720008 -0.10716001 1.5960001 7.2867296e-39 -0.11089405 -0.86623478 -0.48717532 0.02051043
0.086032011 -0.10731201 1.5960001 7.5611585e-39 0.037732016 -0.87490547 -0.48282164 0.016007667
0.09576001 -0.10437334 1.5960001 7.5604382e-39 0.039806023 -0.84845823 -0.52776331 0.010329319
0.10444573 -0.10574858 1.596 7.6526282e-39 -0.01649346 -0.85272092 -0.52210635 0.0099903354
0.11248001 -0.10792001 1.5960001 7.7441008e-39 -0.068305187 -0.86119825 -0.50365865 0.0066267862
0.12555201 -0.10731201 1.5960001 7.1930808e-39 -0.062568083 -0.87694395 -0.47650236 0.01071044
0.13426667 -0.10690668 1.5960001 7.1927123e-39 -0.063762993 -0.87061453 -0.48781615 0.016302656
0.14592001 -0.10792001 1.5960001 7.5586179e-39 -0.039790459 -0.86454743 -0.50097346 0.01630435
0.1596 -0.10792001 1.5960001 7.3749455e-39 0.1328129 -0.85986954 -0.49293521 0.013093885
0.16568001 -0.10792001 1.5960001 7.4667796e-39 0.15767181 -0.84181201 -0.5162288 0.011321637
0.17480001 -0.10488002 1.596 7.0990803e-39 0.13392441 -0.83096236 -0.53996837 0.013000832
0.18392001 -0.10336 1.5960001 7.0061644e-39 0.06216694 -0.82787669 -0.55745447 0.0073798369
0.19405335 -0.10488001 1.5960001 7.0054442e-39 -0.0016575713 -0.80441374 -0.59406722 0.0047213873
0.20520002 -0.10336 1.5960001 6.9139674e-39 -0.020144824 -0.80335546 -0.59515893 0.0050201444
0.21394002 -0.10450002 1.596 6.822848e-39 -0.048296466 -0.78799963 -0.61377853 0.0068186945
0.22546667 -0.10521778 1.596 7.0058001e-39 -0.027899424 -0.7889815 -0.61378318 0.00836425
0.23560001 -0.10574859 1.596 7.0061602e-39 -0.0050697066 -0.79790813 -0.60275775 0.0073541244
0.24472003 -0.10437334 1.5960001 7.0058015e-39 0.035440795 -0.82399601 -0.56548613 0.0090729129
0.25536001 -0.10564001 1.596 6.913603e-39 0.10622193 -0.80087841 -0.58933073 0.011113345
0.26539201 -0.10548802 1.5960001 6.7288531e-39 0.091491163 -0.78158146 -0.61705732 0.013480048
0.27436 -0.1026 1.5960001 6.9125269e-39 0.067588739 -0.81255412 -0.57895386 0.017792486
0.28525335 -0.10285334 1.5960001 6.9132471e-39 -0.0012314308 -0.81312346 -0.58208996 0.018273719
0.29488 -0.10336001 1.596 6.9132499e-39 -0.057511915 -0.79160535 -0.60832012 0.012243784
0.30552003 -0.10336 1.5960001 6.5459093e-39 0.013625145 -0.79167974 -0.61078435 0.011863708
0.31464002 -0.10184 1.5960001 6.1782058e-39 0.02874288 -0.76069182 -0.64847654 0.0074521168
0.32528001 -0.10184 1.5960001 6.637019e-39 -0.0050908895 -0.75239265 -0.65869516 0.0087504843
0.33713603 -0.103664 1.5960001 6.911808e-39 -0.092281349 -0.76812589 -0.63361406 0.008489986
0.34503999 -0.10488001 1.596 6.82069e-39 -0.14288534 -0.76558 -0.62727273 0.0056054536
0.35378 -0.10526001 1.596 6.7288559e-39 -0.067719199 -0.81703472 -0.57259792 0.0081457393
0.36414859 -0.10618287 1.596 6.7284957e-39 0.05230166 -0.84356976 -0.53446662 0.005865484
0.37544003 -0.10488001 1.5960001 6.8224864e-39 0.12784493 -0.85323232 -0.50561875 0.0031496093
0.38456002 -0.10184 1.5960001 6.8210473e-39 0.076175615 -0.83186758 -0.54972142 0.012453996
0.39976004 -0.10184 1.5960001 6.4519074e-39 -0.012704015 -0.7899242 -0.61307287 0.017236091
0.40584004 -0.10184 1.5960001 6.1767583e-39 -0.046865381 -0.79522812 -0.60449642 0.015317271
0.4169867 -0.10285334 1.5960001 6.3600663e-39 0.0034239581 -0.83218622 -0.55448568 0.019524593
0.42332003 -0.1026 1.5960001 6.3600663e-39 0.0019440681 -0.8468138 -0.53188592 0.010322314
0.43472004 -0.10184 1.5960001 6.4522634e-39 0.0080839805 -0.83871067 -0.54451734 0.0089132339
0.44535998 -0.10336 1.5960001 6.6359386e-39 -0.047779292 -0.81408894 -0.57877135 0.0090280259
0.45448002 -0.10336 1.5960001 6.6362987e-39 -0.087730244 -0.80546147 -0.58611876 0.0099764038
0.46572804 -0.10488001 1.596 6.7281342e-39 -0.029973075 -0.8211053 -0.5699892 0.010630019
0.47576001 -0.10574859 1.596 6.8199683e-39 0.014684205 -0.82197887 -0.56932861 0.012496475
0.48412004 -0.1026 1.5960001 6.8196096e-39 0.033454321 -0.82831383 -0.55926472 0.011900354
0.49400005 -0.10285334 1.5960001 6.9118052e-39 -0.02425476 -0.86727792 -0.49723309 0.014132787
0.50529146 -0.10357715 1.596 6.8196082e-39 -0.062318757 -0.87760139 -0.4753232 0.0081620188
0.51528007 -0.10538667 1.5960001 6.3615055e-39 0.027802272 -0.86366034 -0.50330693 0.012965495
0.52440006 -0.10488001 1.5960001 6.3611481e-39 0.087394886 -0.87017053 -0.4849385 0.011995052
0.53453332 -0.10386667 1.5960001 6.4537025e-39 0.062584683 -0.87224442 -0.48504925 0.011104446
0.54507202 -0.103664 1.5960001 6.4533466e-39 -0.060419474 -0.89192611 -0.44812647 0.014688046
0.55480003 -0.10336 1.5960001 6.4519102e-39 -0.14730321 -0.86251831 -0.48411152 0.012131182
0.56316006 -0.10716001 1.5960001 6.5455436e-39 -0.025239326 -0.84860462 -0.52842516 0.02166174
0.57228005 -0.10716001 1.5960001 6.9136045e-39 0.031590566 -0.82268834 -0.5676142 0.016986981
0.58520001 -0.10336 1.5960001 6.4547829e-39 0.098534293 -0.81347394 -0.57319379 0.014047998
0.59432006 -0.10488001 1.5960001 6.6380994e-39 0.047043495 -0.82752901 -0.55944848 0.0140791
0.60404807 -0.10427201 1.5960001 6.8224878e-39 -0.060603168 -0.85542601 -0.51436716 0.0098915799
0.61560005 -0.10488001 1.5960001 7.1901885e-39 0.018544307 -0.85268122 -0.5221023 0.011891056
0.62472004 -0.10640001 1.5960001 7.3742267e-39 0.075985938 -0.83077085 -0.55140358 0.013901946
0.63434666 -0.10386667 1.5960001 7.2827471e-39 0.11253172 -0.81837183 -0.56356376 0.0094393054
0.64600009 -0.10184 1.5960001 7.1912675e-39 0.13000184 -0.83288389 -0.53796279 0.0086362995
0.65512007 -0.10184 1.5960001 7.2827471e-39 0.055345215 -0.84795237 -0.52717525 0.0064718933
0.66424006 -0.10184 1.5960001 7.4656978e-39 -0.025587354 -0.84708393 -0.53084278 0.010552573
0.67488003 -0.10184 1.5960001 7.466774e-39 -0.039226748 -0.82415581 -0.56500304 0.013217979
0.68704009 -0.10184 1.5960001 7.2834646e-39 -0.060695071 -0.78283715 -0.6192593 0.010340768
0.69463998 -0.10336 1.5960001 7.374584e-39 -0.06637267 -0.78401238 -0.61718655 0.011461494
0.7062934 -0.10285334 1.5960001 7.1912745e-39 -0.0092740962 -0.81739485 -0.57600319 0.017325744
0.71516007 -0.10412001 1.5960001 7.2827499e-39 0.0050855288 -0.7982868 -0.60225606 0.015282081
0.72428006 -0.1026 1.5960001 7.4653405e-39 0.0067291427 -0.78197497 -0.62327355 0.013423422
0.735376 -0.103664 1.5960001 7.0072336e-39 0.026399612 -0.77137226 -0.63583642 0.010495062
0.74480009 -0.10336001 1.596 6.8239227e-39 -0.012995362 -0.76176733 -0.6477204 0.009527389
0.75544006 -0.10184 1.5960001 6.4569381e-39 -0.025798224 -0.76395828 -0.6447497 0.014207151
0.76456004 -0.10336 1.5960001 6.6388168e-39 -0.053876512 -0.79168552 -0.60854858 0.01430548
0.77266669 -0.10285334 1.5960001 7.0058001e-39 -0.095789738 -0.82361674 -0.55899888 0.015102775
0.78584003 -0.10488001 1.5960001 7.0050756e-39 -0.096086159 -0.8571862 -0.50596368 0.010265587
0.79496008 -0.10690668 1.5960001 6.8221165e-39 -0.055734891 -0.87669635 -0.47780451 0.0058860085
0.80408007 -0.10792001 1.5960001 7.0054329e-39 -0.03000218 -0.86632699 -0.49857545 0.0043332847
0.81563205 -0.10731201 1.5960001 7.006156e-39 -0.0068872999 -0.86565959 -0.50058568 0.0034143676
0.82536006 -0.10640001 1.5960001 6.8232025e-39 -0.023212757 -0.86586994 -0.49973038 0.0033848826
0.83524007 -0.10716001 1.5960001 7.0065175e-39 -0.057444792 -0.86573589 -0.49719357 0.003654243
0.84481603 -0.10731201 1.5960001 7.1912675e-39 -0.084435374 -0.87675464 -0.47346798 0.0041012224
0.85272008 -0.10792001 1.5960001 7.5586053e-39 -0.1317523 -0.89227819 -0.43183437 0.0054416345
0.057760004 -0.098800004 1.5960001 8.1168602e-39 -0.0054727788 -0.82268769 -0.56846726 0.028007809
0.26904002 -0.098800004 1.5960001 7.0047225e-39 0.072653212 -0.81660074 -0.57261223 0.018627698
0.27512002 -0.098800004 1.5960001 7.0972768e-39 0.054341041 -0.82778561 -0.55840671 0.016787007
0.28484803 -0.097584002 1.5960001 7.0054413e-39 -0.0032395548 -0.83046478 -0.55706173 0.017762348
0.29032001 -0.098800004 1.5960001 7.0058015e-39 -0.048021331 -0.82845098 -0.55799901 0.017817235
0.32376003 -0.098800004 1.5960001 6.728137e-39 0.012765356 -0.76146579 -0.6480794 0.0081037171
0.33440003 -0.098800004 1.5960001 7.095479e-39 -0.06448032 -0.73517394 -0.67480487 0.0091427071
0.39621338 -0.097786665 1.5960001 6.7281328e-39 0.010773075 -0.79516709 -0.60629463 0.017600551
0.40432003 -0.098800004 1.5960001 6.3607908e-39 -0.045884863 -0.79342902 -0.60693073 0.014713863
0.53858668 -0.097786665 1.5960001 6.4540612e-39 0.0061631422 -0.87422729 -0.48547778 0.012126667
0.58520001 -0.098800004 1.5960001 6.5458953e-39 0.085390694 -0.79994786 -0.59396279 0.011510286
0.63688004 -0.098800004 1.5960001 7.2831044e-39 0.11359069 -0.81632125 -0.56631863 0.0099594323
0.64752007 -0.098800004 1.5960001 7.1909102e-39 0.097996742 -0.85922414 -0.50212598 0.0077256355
0.66576004 -0.098800004 1.5960001 7.4664139e-39 -0.014114843 -0.85186875 -0.52356511 0.010668581
0.67488003 -0.098800004 1.5960001 7.3752987e-39 -0.037737381 -0.82548046 -0.56316775 0.013000611
0.68552011 -0.098800004 1.5960001 7.3749413e-39 -0.047276165 -0.79121923 -0.60970247 0.011221793
0.69312 -0.098800004 1.5960001 7.3742267e-39 -0.079165325 -0.79327708 -0.60369229 0.013128391
0.70376009 -0.098800004 1.5960001 7.0079623e-39 -0.0055160131 -0.83620566 -0.54838818 0.015763523
0.7270667 -0.096773334 1.5960001 7.2816667e-39 0.012811339 -0.74909323 -0.6623407 0.012679541
0.75544006 -0.098800004 1.5960001 6.7320873e-39 -0.039658248 -0.78033197 -0.62410671 0.013441736
0.76152003 -0.098800004 1.5960001 6.7313698e-39 -0.070317045 -0.78829998 -0.61125988 0.019959303
0.77064008 -0.098800004 1.5960001 6.9128912e-39 -0.11302141 -0.82831478 -0.54874474 0.016922178
-0.18472669 -0.12060668 1.603 1.0056217e-38 0.011497247 -0.84480059 -0.53495777 0.01270416
-0.29312003 -0.11144667 1.603 9.8711121e-39 0.022203386 -0.88971657 -0.45597312 0.0067115794
-0.28854001 -0.11144667 1.603 9.9625889e-39 0.00082222733 -0.8826707 -0.46999118 0.0049457797
-0.2717467 -0.11144667 1.603 1.0145181e-38 -0.025777532 -0.88230181 -0.46997771 0.0049688043
-0.26106003 -0.11297334 1.603 1.0236299e-38 -0.02782906 -0.86608481 -0.49912184 0.0050963871
-0.25419003 -0.11221001 1.603 1.0144822e-38 -0.017810388 -0.85210443 -0.52306867 0.0034670813
-0.24426669 -0.11450001 1.603 9.8689555e-39 0.0058164326 -0.85516244 -0.51832747 0.0046088928
-0.23510668 -0.11450001 1.603 1.0053703e-38 0.018736014 -0.85713977 -0.51474303 0.0066563347
-0.22747335 -0.11450001 1.603 1.0329929e-38 0.039283559 -0.869295 -0.49273011 0.0069613894
-0.19490446 -0.11450001 1.603 1.0515398e-38 -0.057515573 -0.84467727 -0.53217697 0.010021997
-0.18411601 -0.11572134 1.603 1.0239172e-38 0.004191245 -0.84365869 -0.53686351 0.012644816
-0.17480335 -0.11526334 1.603 1.0330292e-38 0.047527168 -0.84599888 -0.53106219 0.0098362956
-0.16335334 -0.11144667 1.603 9.8711121e-39 0.079238385 -0.85336983 -0.51524866 0.010583092
-0.15724668 -0.11144667 1.603 1.0054424e-38 0.03640648 -0.86730099 -0.49645093 0.0075152447
-0.13434668 -0.11144667 1.603 1.005298e-38 0.024563612 -0.90588635 -0.42280799 0.0096035236
-0.12467778 -0.11144667 1.603 9.5016037e-39 -0.018897215 -0.89465487 -0.44635811 0.012349489
-0.11755334 -0.11144667 1.603 9.4090494e-39 -0.034818336 -0.86020517 -0.50875801 0.00934166
-0.093126677 -0.11144667 1.603 1.0051546e-38 -0.038386811 -0.85008061 -0.52525175 0.0064869164
-0.083966672 -0.11297334 1.603 9.9589889e-39 -0.093634143 -0.86346143 -0.49564803 0.0084544569
-0.074196003 -0.11572134 1.603 9.4990856e-39 -0.11242104 -0.86454016 -0.48982835 0.0076830261
-0.065036014 -0.11572134 1.603 9.0399053e-39 -0.027015541 -0.87307584 -0.48683545 0.0085367505
-0.053942222 -0.11551779 1.603 8.948074e-39 0.037960876 -0.85982609 -0.50917393 0.0074910987
-0.04503667 -0.11526334 1.603 8.9491502e-39 0.017546739 -0.85076123 -0.52525938 0.0080435872
-0.035876669 -0.11602667 1.603 9.0399053e-39 -0.075051539 -0.83029228 -0.5522517 0.0068988167
-0.026716668 -0.11679 1.603 8.9462691e-39 -0.036016904 -0.86650568 -0.49786609 0.0098783579
-0.015266668 -0.11679001 1.603 8.393094e-39 0.0027382458 -0.88900042 -0.45789817 0.0071029728
-0.0045800004 -0.11602668 1.603 8.1172245e-39 0.046969175 -0.87831652 -0.47576678 0.0091839805
0.0053433338 -0.11602667 1.603 8.0246604e-39 0.016092248 -0.86184901 -0.50690961 0.0097828498
0.015266668 -0.11602668 1.6029999 8.0242988e-39 -0.013488135 -0.86680681 -0.49846169 0.010264209
0.025953336 -0.11602667 1.603 7.9313843e-39 0.0022805049 -0.86169839 -0.50741571 0.010220974
0.033586666 -0.11602667 1.603 7.6555177e-39 0.12165597 -0.88125396 -0.45671797 0.0090259453
0.0458 -0.11450001 1.603 7.5629592e-39 0.20609067 -0.82498491 -0.52623808 0.018045969
0.054960001 -0.11144667 1.603 7.6565883e-39 0.093799233 -0.80746818 -0.58240604 0.019314012
0.065646671 -0.11144667 1.603 7.4707593e-39 -0.048313037 -0.82718563 -0.55984795 0.018458338
0.071753338 -0.11144667 1.603 7.3789224e-39 -0.12829478 -0.83000153 -0.54280561 0.012149766
0.082440004 -0.11450001 1.603 7.4689671e-39 0.030816736 -0.84997427 -0.52592212 0.0076799174
0.094653338 -0.11144667 1.603 7.5604396e-39 0.031007946 -0.84602427 -0.53224194 0.0088352375
0.10534 -0.11144667 1.603 7.5607927e-39 -0.0015079395 -0.84533608 -0.53423274 0.0098977704
0.12467778 -0.11144667 1.603 7.1927193e-39 -0.020419726 -0.90684742 -0.42096418 0.0081616566
0.13587335 -0.11144667 1.603 7.1005152e-39 -0.047038447 -0.93311459 -0.35648918 0.008837021
0.14656001 -0.11450001 1.603 6.9154079e-39 -0.035162251 -0.92740947 -0.37239134 0.0098226918
0.15114 -0.11450001 1.603 7.0072434e-39 -0.0042932881 -0.91667342 -0.39961407 0.01121355
0.17556667 -0.11144667 1.603 7.0994362e-39 0.11565807 -0.82924944 -0.54678023 0.011813008
0.18472667 -0.11144667 1.603 7.007242e-39 0.036859032 -0.81809199 -0.57390493 0.0073216232
0.19541335 -0.11144667 1.603 7.0058029e-39 -0.017062264 -0.80597281 -0.59170657 0.0049832668
0.20610002 -0.11221001 1.603 7.0054427e-39 -0.033237763 -0.7917105 -0.60999161 0.0050160601
0.21587069 -0.112668 1.603 6.9132457e-39 -0.055171676 -0.79066199 -0.60976195 0.0064192852
0.22442001 -0.11297334 1.603 6.9125269e-39 -0.0062734303 -0.80139017 -0.59810901 0.0083968956
0.23510668 -0.11221001 1.603 7.0040064e-39 0.029502714 -0.82622212 -0.56257141 0.0077142636
0.24579334 -0.11144667 1.603 6.9132485e-39 0.042639453 -0.87331575 -0.48528498 0.011208057
0.25495335 -0.11144667 1.603 6.912887e-39 0.098157361 -0.86589998 -0.49049199 0.014501281
0.26411334 -0.11144667 1.603 6.7292104e-39 0.061532225 -0.8419807 -0.5359872 0.013264623
0.27022001 -0.11144667 1.603 6.7284901e-39 0.073520429 -0.82310909 -0.56310403 0.017164448
0.28854001 -0.11144667 1.603 6.8206928e-39 -0.0095968461 -0.83547932 -0.54943806 0.021821776
0.29464665 -0.11144667 1.603 6.8203312e-39 -0.02747271 -0.81618804 -0.57713288 0.017123593
0.30533335 -0.11144667 1.603 6.6370176e-39 0.011900211 -0.8204537 -0.57158911 0.011859777
0.31602001 -0.11144667 1.603 6.4533438e-39 0.045896895 -0.79781216 -0.60115659 0.0087930541
0.33586669 -0.11144667 1.603 6.9125283e-39 -0.078500092 -0.80853826 -0.583184 0.014639249
0.34594268 -0.11205734 1.603 6.8210487e-39 -0.08340361 -0.81896061 -0.56775641 0.008146394
0.35495004 -0.11221001 1.603 6.6363001e-39 0.0030151759 -0.86513054 -0.50153774 0.0059538838
0.3633467 -0.11144667 1.603 6.7281356e-39 0.087657183 -0.87838191 -0.46985257 0.0040933727
0.39846003 -0.11450001 1.603 6.3593545e-39 -0.053891096 -0.83887756 -0.54164582 0.018388763
0.40380335 -0.11221001 1.603 6.083485e-39 -0.047290314 -0.8296876 -0.55622125 0.021202747
0.41525334 -0.11144667 1.603 6.176038e-39 0.020741127 -0.83781511 -0.54556 0.018207598
0.42441338 -0.11144667 1.603 6.5444562e-39 0.020149028 -0.86326671 -0.50434572 0.010220439
0.45545557 -0.11144667 1.603 6.8199655e-39 -0.11811785 -0.88107473 -0.45799068 0.0059530828
0.46563336 -0.11144667 1.603 6.9118066e-39 -0.03920297 -0.82702142 -0.56080186 0.012404649
0.47479334 -0.11246445 1.603 6.8203298e-39 0.036806602 -0.84023738 -0.540968 0.013883191
0.4824267 -0.11144667 1.603 7.0043567e-39 0.045393545 -0.84930283 -0.52595067 0.013500388
0.50685334 -0.11144667 1.603 6.6373735e-39 -0.064249866 -0.86172092 -0.50329816 0.010731488
0.51296008 -0.11144667 1.603 6.5448177e-39 -0.028593693 -0.84891683 -0.5277524 0.012738702
0.52364671 -0.11144667 1.603 6.2696742e-39 0.097563013 -0.83746946 -0.53770471 0.013668198
0.55570674 -0.11144667 1.603 6.1771212e-39 -0.16777866 -0.88195145 -0.44046786 0.011165765
0.56486666 -0.11373667 1.603 6.5455422e-39 -0.11262916 -0.89202428 -0.43772978 0.015066079
0.57555336 -0.11450001 1.603 7.0050826e-39 0.027884383 -0.87050003 -0.49137786 0.019516975
0.5847134 -0.11144667 1.603 6.9143233e-39 0.09330029 -0.84497356 -0.5266068 0.017329887
0.59082001 -0.11144667 1.603 6.730295e-39 0.077035926 -0.8505556 -0.52021211 0.017152507
0.61524671 -0.11144667 1.603 7.0065189e-39 -0.023909071 -0.88468605 -0.46557382 0.0081858141
0.62288004 -0.11144667 1.603 7.281315e-39 0.02606271 -0.87101769 -0.49055982 0.015684966
0.63356668 -0.11144667 1.603 7.3749455e-39 0.11029211 -0.85267133 -0.51067334 0.011717113
0.67936671 -0.11144667 1.603 7.5582578e-39 -0.098369084 -0.80909085 -0.57939237 0.015369358
0.68547338 -0.11144667 1.603 7.3749413e-39 -0.057149384 -0.81133628 -0.58177948 0.013760935
0.69463342 -0.11144667 1.603 7.2834632e-39 -0.057191551 -0.8267132 -0.55970919 0.020397123
0.70684671 -0.11144667 1.603 7.2831086e-39 -0.021196937 -0.8655802 -0.50032145 0.015403388
0.71295339 -0.11144667 1.603 7.0997964e-39 -0.01147727 -0.84408575 -0.53608537 0.019997343
0.72516668 -0.11144667 1.603 7.3749441e-39 0.00046794559 -0.84790009 -0.53015584 0.015731268
0.73432672 -0.11144667 1.603 7.1901913e-39 -0.015846325 -0.83352184 -0.55225921 0.014650295
0.74501342 -0.11144667 1.603 6.4555032e-39 -0.014614663 -0.81054574 -0.58549297 0.015364191
0.75570005 -0.11144667 1.603 5.9963229e-39 0.023301186 -0.82365292 -0.56661528 0.015641971
0.76486009 -0.11144667 1.603 6.1792764e-39 -0.0092354873 -0.8365863 -0.54775733 0.017232327
0.77249336 -0.11144667 1.603 6.4533508e-39 -0.065603845 -0.84839779 -0.52527833 0.016846754
0.78470671 -0.11144667 1.603 6.8214102e-39 -0.067499571 -0.88997114 -0.4509936 0.011101162
0.79539341 -0.11144667 1.603 6.9132373e-39 -0.056469142 -0.90999079 -0.4107652 0.0038586245
0.80455333 -0.11144667 1.603 6.8217563e-39 -0.041671067 -0.9134475 -0.40481752 0.0050071841
0.81600344 -0.11221001 1.603 6.8224864e-39 -0.031168427 -0.89701301 -0.44090384 0.0057249754
0.82516336 -0.11221001 1.603 6.7317271e-39 -0.019298863 -0.87021726 -0.49229008 0.0028754738
0.83508676 -0.11144667 1.603 7.0983474e-39 -0.052494999 -0.8713792 -0.48779362 0.0037519843
0.84424669 -0.11144667 1.603 7.2830988e-39 -0.07081458 -0.86425942 -0.49803704 0.0045328699
0.85340667 -0.11450001 1.603 7.4682062e-39 -0.12984638 -0.8673746 -0.48041776 0.0061498876
0.058013335 -0.10534 1.603 7.8402635e-39 0.052568089 -0.80828124 -0.58644527 0.020461988
0.097706676 -0.10839334 1.603 7.6519136e-39 0.066033363 -0.83453882 -0.5469777 0.0092465021
0.17862001 -0.10839334 1.603 7.098723e-39 0.095419787 -0.81974733 -0.56472063 0.0084075546
0.18472667 -0.10839334 1.603 7.0990761e-39 0.032710064 -0.81128478 -0.58373541 0.0070820847
0.19490445 -0.10839334 1.603 7.0976384e-39 -0.019241966 -0.80743623 -0.58964097 0.0041210232
0.20610003 -0.10839334 1.603 7.0054442e-39 -0.029630439 -0.79003227 -0.61234879 0.0045510423
0.21831335 -0.10839334 1.603 7.0061588e-39 -0.057030857 -0.78526235 -0.61653101 0.0063501759
0.22136669 -0.10839334 1.603 7.0058001e-39 -0.041958921 -0.78936327 -0.61249089 0.0064114691
0.24732001 -0.10839334 1.603 6.9136073e-39 0.070774451 -0.85683113 -0.51071656 0.012342306
0.25495335 -0.10839334 1.603 7.0054399e-39 0.092431381 -0.85772777 -0.50572675 0.013517031
0.27501813 -0.10708477 1.6029999 6.8203312e-39 0.067138344 -0.78127819 -0.62056166 0.018713068
0.28497782 -0.10635778 1.603 6.912887e-39 -0.029312136 -0.78125226 -0.62352681 0.01937346
0.29464665 -0.10839334 1.603 6.8206928e-39 -0.027866527 -0.82065785 -0.57073998 0.016057815
0.30533335 -0.10839334 1.603 6.6373805e-39 -0.005581093 -0.78795004 -0.61571389 0.011235476
0.31602001 -0.10686667 1.603 6.1778443e-39 0.041163616 -0.79606467 -0.60381007 0.0077501945
0.32518002 -0.10686667 1.603 6.4537067e-39 0.00061894924 -0.78580648 -0.6184721 0.012127166
0.33434001 -0.10686668 1.603 6.82069e-39 -0.07334426 -0.77910107 -0.6225931 0.011068717
0.37403336 -0.10839334 1.603 6.7292132e-39 0.09314701 -0.85514027 -0.50995952 0.0030883497
0.38537431 -0.10708477 1.6029999 6.9128828e-39 0.052052535 -0.81810886 -0.57270277 0.01607438
0.39540666 -0.10534 1.6029999 6.6355784e-39 -0.029005084 -0.80460924 -0.59309584 0.016119763
0.40456668 -0.10686667 1.603 6.083485e-39 -0.050136201 -0.80323011 -0.59355515 0.018342907
0.41459909 -0.10708477 1.6029999 6.2678721e-39 0.01448192 -0.82883334 -0.55930811 0.0172035
0.42655072 -0.107172 1.603 6.6362917e-39 0.017870061 -0.85247415 -0.5224638 0.010669868
0.43571067 -0.10656133 1.603 6.7277713e-39 0.0010845263 -0.86041749 -0.5095886 0.0080421185
0.44349667 -0.10763001 1.603 6.6359386e-39 -0.047675408 -0.88189036 -0.4690378 0.0082604671
0.4549467 -0.10839334 1.603 6.9118024e-39 -0.10633446 -0.84053999 -0.53121132 0.0066733491
0.46258003 -0.10839334 1.603 6.8199697e-39 -0.046001475 -0.82709754 -0.56017274 0.012573526
0.48598889 -0.10737556 1.603 6.9118038e-39 0.046481509 -0.8368535 -0.54544997 0.011298834
0.49398574 -0.10708475 1.6029999 6.8199697e-39 -0.0029789764 -0.85792655 -0.51376379 0.014173741
0.50532669 -0.10839334 1.603 6.7288503e-39 -0.058120895 -0.85937941 -0.50802457 0.0094904266
0.51296008 -0.10839334 1.603 6.7284887e-39 -0.028575588 -0.85398877 -0.51950616 0.010992588
0.52822673 -0.10839334 1.603 6.3604321e-39 0.11408807 -0.84391779 -0.52420098 0.013123511
0.53433335 -0.10839334 1.603 6.5448205e-39 0.084504329 -0.87158042 -0.48291475 0.01386937
0.54502004 -0.10635778 1.603 6.4533466e-39 -0.067397051 -0.886747 -0.45731542 0.018860666
0.55418003 -0.10839334 1.603 6.2693154e-39 -0.17386435 -0.88346452 -0.43504211 0.012921377
0.5602867 -0.10839334 1.603 6.2693168e-39 -0.1791617 -0.88187653 -0.43611333 0.009742084
0.58624005 -0.10839334 1.603 6.8221277e-39 0.12391813 -0.82303679 -0.55430567 0.013198552
0.59540004 -0.10839334 1.603 6.6388182e-39 0.069196269 -0.82407838 -0.56223363 0.015634567
0.60608673 -0.10839334 1.603 6.9143233e-39 -0.049501602 -0.881239 -0.47007173 0.0094890548
0.61524671 -0.10839334 1.603 7.098353e-39 0.0099404072 -0.86312336 -0.50489527 0.012641304
0.62135339 -0.10839334 1.603 7.2816709e-39 0.023944493 -0.85445148 -0.51897907 0.015568448
0.6386556 -0.10737556 1.603 7.1916277e-39 0.1224756 -0.82450032 -0.55244815 0.0098708672
0.64516938 -0.10656133 1.603 7.2827415e-39 0.12961864 -0.81376243 -0.56655955 0.0088055041
0.65494007 -0.10534 1.603 7.2827471e-39 0.06223464 -0.82069212 -0.56797123 0.0061162598
0.66409999 -0.10534 1.603 7.5582522e-39 -0.028790655 -0.81963217 -0.5721662 0.0095288921
0.67570269 -0.10595067 1.603 7.5582494e-39 -0.070888042 -0.79974473 -0.59614033 0.010892007
0.68547338 -0.10621238 1.6029999 7.4664167e-39 -0.057338685 -0.79454845 -0.60448742 0.012495428
0.69387001 -0.10763001 1.603 7.2834632e-39 -0.059354175 -0.82383806 -0.56370908 0.016137816
0.70532006 -0.10737556 1.603 7.1912731e-39 -0.037701741 -0.82894659 -0.5580557 0.015468217
0.71600676 -0.10839334 1.603 7.1916319e-39 0.020972554 -0.84707516 -0.53105915 0.016364019
0.72593004 -0.10763001 1.603 7.3742239e-39 0.00052617717 -0.80469167 -0.59369272 0.01556218
0.73432666 -0.10686667 1.603 7.0979957e-39 0.0014716507 -0.79008615 -0.61299407 0.012316985
0.74654007 -0.10839334 1.603 6.3647439e-39 -0.014381178 -0.78044748 -0.62505591 0.012640491
0.7563107 -0.107172 1.603 6.1807127e-39 -0.007171791 -0.78028697 -0.62538052 0.014604573
0.76409674 -0.10763001 1.603 6.1796365e-39 -0.013709883 -0.81022674 -0.58595622 0.015749656
0.77402008 -0.10763001 1.603 6.7288587e-39 -0.06915728 -0.83258814 -0.54955822 0.01547398
0.78470671 -0.10839334 1.603 7.097274e-39 -0.069873199 -0.88128161 -0.46739748 0.011900387
0.79386675 -0.10839334 1.603 7.0972684e-39 -0.07486102 -0.89848328 -0.43257791 0.0049073412
-0.31651163 -0.122968 1.618 1.0788036e-38 0.048525859 -0.83159906 -0.5532524 0.012970015
-0.30510861 -0.12173524 1.618 1.0054786e-38 0.071347803 -0.86680561 -0.49351546 0.0063549262
-0.29740384 -0.12173524 1.618 9.5952497e-39 0.033295192 -0.86247891 -0.5049966 0.0060296706
-0.27274859 -0.12173524 1.618 1.0053343e-38 -0.068093024 -0.8535344 -0.51656783 0.0044797058
-0.26438341 -0.12305605 1.618 1.0327773e-38 -0.08809305 -0.83029985 -0.55031055 0.0026888836
-0.25425717 -0.1232762 1.618 1.0052268e-38 -0.015748555 -0.85177767 -0.52366674 0.0046474324
-0.244837 -0.12318841 1.6168333 9.6852831e-39 0.05120508 -0.87361747 -0.48391175 0.005367022
-0.23576571 -0.12173524 1.618 9.6849216e-39 0.096082367 -0.90036434 -0.42439631 0.0057148426
-0.22960192 -0.12173524 1.618 9.9604281e-39 0.067175396 -0.91101176 -0.4068723 0.0055559161
-0.21419239 -0.12173524 1.618 9.5030513e-39 -0.02965286 -0.89459258 -0.44589779 0.0066927443
-0.20494668 -0.12173524 1.618 9.595607e-39 -0.086488932 -0.87327725 -0.47948566 0.0045578307
-0.19570096 -0.12173524 1.618 9.872903e-39 -0.084928527 -0.87367338 -0.47904274 0.007193021
-0.18515907 -0.12361429 1.6156667 9.8718268e-39 -0.033028908 -0.87359953 -0.48552334 0.01009907
-0.17467959 -0.12283034 1.615 1.005478e-38 0.037318382 -0.85138971 -0.52320439 0.0093151238
-0.16411144 -0.12250572 1.618 9.8707492e-39 0.07342606 -0.80664831 -0.58645302 0.009975845
-0.15640667 -0.12250572 1.618 1.0054059e-38 0.14640082 -0.77521199 -0.61450237 0.0096011609
-0.14947239 -0.12173524 1.618 1.0054059e-38 0.13555503 -0.80908895 -0.57183903 0.014858947
-0.12173524 -0.12173524 1.618 9.0413529e-39 -0.072485507 -0.82970226 -0.55347991 0.011694038
-0.11557144 -0.12173524 1.618 9.1328254e-39 -0.085762136 -0.84879982 -0.5217123 0.010152579
-0.10478476 -0.12173524 1.618 9.315416e-39 -0.039856289 -0.84813285 -0.52828223 0.0045535336
-0.093998104 -0.12173524 1.618 9.5912868e-39 -0.050313126 -0.84755629 -0.52831519 0.0033954803
-0.083981901 -0.12250572 1.618 9.4068942e-39 -0.071928069 -0.85308069 -0.51679754 0.0024869747
-0.075400002 -0.12310064 1.6156667 9.2232176e-39 -0.062836111 -0.85718727 -0.5111571 0.002134772
-0.063979596 -0.12290557 1.6160001 8.9473495e-39 -0.045979749 -0.85384691 -0.51848948 0.0029743935
-0.053857785 -0.12310064 1.6156667 8.6722032e-39 -0.01057578 -0.8514089 -0.52439588 0.0032385401
-0.045000359 -0.12423441 1.615375 8.6714815e-39 -0.0053092814 -0.85491508 -0.51874083 0.0038533015
-0.035388574 -0.12310063 1.6156667 8.7625968e-39 0.0093188575 -0.85870582 -0.51238412 0.004519132
-0.026744574 -0.12265201 1.6138 8.6693207e-39 0.020778764 -0.87664694 -0.48068532 0.0039049347
-0.014467621 -0.12224629 1.6166 8.2086985e-39 -0.038423225 -0.84940708 -0.52633756 0.0073500713
-0.0042367862 -0.12436607 1.617125 7.8409922e-39 -0.042037863 -0.84464198 -0.53367853 0.00824566
0.0046147089 -0.12464011 1.6156667 7.9324605e-39 -0.0050011608 -0.85147005 -0.52437937 0.0074378774
0.014169524 -0.12377819 1.6133333 7.9317417e-39 0.044780962 -0.84441233 -0.53381884 0.0059914058
0.024279049 -0.12265201 1.6138 7.6551562e-39 0.040948991 -0.8813284 -0.47072655 0.0040784092
0.04564603 -0.12258699 1.6156667 7.2860079e-39 0.094394974 -0.85807937 -0.50476664 0.0095593138
0.053933337 -0.12173524 1.618 7.1016167e-39 -0.0047721341 -0.82110929 -0.57075101 0.0098607838
0.064720005 -0.12173524 1.618 7.1941696e-39 -0.052000318 -0.79788762 -0.60055918 0.0085123787
0.075506672 -0.12173524 1.618 7.4685971e-39 0.0032606046 -0.82444286 -0.56593573 0.010695743
0.083981909 -0.12250572 1.618 7.5607899e-39 0.069809221 -0.82410729 -0.56211555 0.0094049703
0.093998104 -0.12173524 1.618 7.3760414e-39 0.067206368 -0.82894307 -0.55528075 0.0075570033
0.10324382 -0.12173524 1.618 7.192006e-39 0.065729193 -0.82917589 -0.55510986 0.0063546062
0.11557144 -0.12173524 1.618 7.1912787e-39 0.083950691 -0.85446501 -0.51268101 0.0095584625
0.17720954 -0.12173524 1.618 7.1916319e-39 -0.10518629 -0.79923117 -0.59174776 0.010251336
0.18337335 -0.12173524 1.618 6.9161254e-39 -0.058585003 -0.78770357 -0.61326253 0.0095839137
0.19724192 -0.12173524 1.618 6.7310111e-39 0.0025285289 -0.79395527 -0.60797095 0.0093441885
0.20494668 -0.12173524 1.618 6.9136059e-39 0.012066538 -0.80400306 -0.59450275 0.0092263632
0.213576 -0.122968 1.618 7.0050826e-39 0.013546073 -0.82209784 -0.56918508 0.0073671048
0.22497906 -0.12173524 1.618 6.6366602e-39 0.066087678 -0.83548045 -0.54553169 0.0084337629
0.23422477 -0.12173524 1.618 6.7288545e-39 0.11738752 -0.84545577 -0.52098435 0.01143809
0.47923622 -0.12173524 1.618 6.8203326e-39 0.10580885 -0.86210853 -0.49555355 0.012192658
0.51412314 -0.12160357 1.61625 6.3622285e-39 -0.025960874 -0.86424351 -0.50240338 0.017622847
0.52392387 -0.12173524 1.618 6.5462597e-39 0.10890771 -0.84622699 -0.52157354 0.011956373
0.83211434 -0.12173524 1.618 6.823571e-39 -0.095096067 -0.86221409 -0.49753752 0.0070992559
0.84444195 -0.12173524 1.618 7.6515254e-39 -0.10051743 -0.85405344 -0.51038122 0.0046531651
0.85510224 -0.12286267 1.6166 8.111412e-39 -0.079681858 -0.86043644 -0.50328916 0.0042030374
0.86199838 -0.12314452 1.61625 8.4805658e-39 -0.085644819 -0.85839599 -0.50578773 0.0051315771
-0.31544194 -0.11694572 1.6156667 1.0420694e-38 0.071299374 -0.86955011 -0.48867068 0.0076533426
-0.30520043 -0.11711823 1.615 9.962949e-39 0.068939105 -0.87087452 -0.48664665 0.0051550684
-0.29521957 -0.11686239 1.6145 9.6863649e-39 0.035617456 -0.88044971 -0.47279984 0.005338219
-0.28524819 -0.11660653 1.6140001 9.6863621e-39 -0.018210441 -0.88130641 -0.47219422 0.0048135314
-0.2756294 -0.11702906 1.6168333 9.9615085e-39 -0.062895961 -0.86274678 -0.50170922 0.0042083464
-0.26604515 -0.11691258 1.6110001 1.0235937e-38 -0.04610943 -0.85753244 -0.51235926 0.0056781932
-0.25491062 -0.11682489 1.6110001 1.0144103e-38 -0.0467906 -0.84527546 -0.53227812 0.0043139849
-0.24395144 -0.11814 1.6110001 9.8685954e-39 0.029999055 -0.86536753 -0.50023901 0.00592699
-0.23474574 -0.11814 1.6110001 9.9607868e-39 0.051133499 -0.87386531 -0.4834716 0.0062487884
-0.22389865 -0.11711633 1.615 1.014626e-38 0.029373497 -0.89366943 -0.4477635 0.0055189296
-0.21372907 -0.11686239 1.6145 1.0147342e-38 -0.019650837 -0.89330709 -0.44901702 0.0053574829
-0.20485373 -0.11701524 1.6124001 1.0148059e-38 -0.096425891 -0.87788421 -0.46906438 0.007810717
-0.19562143 -0.11737286 1.6110001 1.0331726e-38 -0.069506183 -0.86600405 -0.49518269 0.0076749674
-0.18871716 -0.11814 1.6110001 1.0148052e-38 -0.022589719 -0.85910028 -0.51130855 0.0098118326
-0.17414144 -0.11737286 1.6110001 1.014662e-38 0.050598487 -0.83193231 -0.55256528 0.011059395
-0.16452526 -0.11686239 1.6145 9.7789179e-39 0.095630482 -0.82876939 -0.55135846 0.010830317
-0.1551851 -0.11677683 1.6133333 1.0054063e-38 0.094048485 -0.85656816 -0.50739127 0.014576954
-0.14476869 -0.1170499 1.617125 1.0144818e-38 0.092529781 -0.84822088 -0.52149743 0.015580075
-0.13406287 -0.11557144 1.618 9.6856349e-39 0.029253766 -0.86715937 -0.49717081 0.014202646
-0.12463715 -0.11592064 1.6156667 9.2257385e-39 -0.0580841 -0.86967421 -0.49019694 0.010319464
-0.11532143 -0.11686239 1.6145 9.2250196e-39 -0.098848209 -0.86392075 -0.4938319 0.0086042499
-0.10511851 -0.11697157 1.613 9.4079718e-39 -0.03121388 -0.86618751 -0.49874333 0.0050617703
-0.094586268 -0.1165332 1.613 9.8671563e-39 -0.054847963 -0.85745448 -0.51162833 0.0047423048
-0.084999435 -0.11691257 1.6110001 9.8664374e-39 -0.077476144 -0.85008323 -0.52091837 0.0035843123
-0.078248575 -0.11814 1.6110001 9.5912826e-39 -0.086417064 -0.8606953 -0.50173271 0.0052843341
-0.069042861 -0.11814 1.6110001 9.1317408e-39 -0.066048011 -0.8719033 -0.48520342 0.0050219889
-0.058302861 -0.11814 1.6110001 8.9473524e-39 -0.0081688762 -0.86114681 -0.50829065 0.0055332733
-0.042960003 -0.11814 1.6110001 8.8569532e-39 -0.017536363 -0.83898169 -0.54387701 0.0047962456
-0.032220002 -0.11814 1.6110001 9.1310205e-39 0.0029330286 -0.86741406 -0.49757844 0.0064928913
-0.010740001 -0.11814 1.6110001 8.2090628e-39 -0.010096436 -0.87195951 -0.48947382 0.009279686
-0.0076714288 -0.11814 1.6110001 8.1168672e-39 -0.015624603 -0.87088233 -0.49124312 0.0084321592
0.0046028574 -0.11814 1.6110001 8.0250191e-39 -0.0092325872 -0.843458 -0.53711575 0.0094014229
0.036822859 -0.11814 1.6110001 7.654796e-39 0.10546741 -0.88374126 -0.4559364 0.0057837451
0.042448577 -0.11711714 1.6110001 7.6547918e-39 0.13080287 -0.85783213 -0.49700573 0.010830572
0.054645307 -0.1165332 1.613 7.4711166e-39 0.04914381 -0.80962086 -0.58489227 0.013921876
0.065134704 -0.11689823 1.6120001 7.2863681e-39 -0.029734844 -0.80318201 -0.59499121 0.0098612895
0.075286664 -0.11677683 1.6133333 7.3771246e-39 -0.031532459 -0.81282872 -0.58164865 0.010681782
0.085152864 -0.11737286 1.6110001 7.5607983e-39 0.045338526 -0.82044393 -0.56992644 0.0082239136
0.09464246 -0.11660653 1.6140001 7.4682426e-39 0.064016052 -0.84048575 -0.53803867 0.0067106937
0.10511851 -0.11697157 1.613 7.2845646e-39 0.035688534 -0.85492271 -0.51752627 0.0063396841
0.11532143 -0.11686239 1.6145 7.4678698e-39 0.041547123 -0.87445211 -0.48332942 0.0094934003
0.123915 -0.11621691 1.61625 7.1920018e-39 0.074360214 -0.8828972 -0.46364111 0.0093081249
0.13505831 -0.11598782 1.6152 6.8242913e-39 0.006100921 -0.9105401 -0.41337574 0.008583311
0.14530334 -0.11762953 1.6145 6.823571e-39 -0.05153162 -0.91681749 -0.39596745 0.0059273229
0.15598057 -0.11722058 1.6152 7.0072406e-39 -0.04267681 -0.90231717 -0.42895502 0.0067262258
0.16452526 -0.11686239 1.6145 7.1909116e-39 0.02770739 -0.88684952 -0.46122685 0.0070287567
0.17457198 -0.11660463 1.6140001 7.0994376e-39 -0.010186383 -0.8427161 -0.53826183 0.010629649
0.18534614 -0.11718967 1.6160001 6.9157653e-39 -0.062164005 -0.80268574 -0.59315366 0.008783984
0.19527763 -0.11686239 1.6145 6.8224906e-39 -0.024584852 -0.78097099 -0.62408328 0.0067375507
0.20379829 -0.1171179 1.6138 7.0058015e-39 -0.026060971 -0.80106205 -0.59801376 0.00617657
0.21377714 -0.11711714 1.6110001 6.9136059e-39 -0.047439933 -0.81066281 -0.58358824 0.0060288659
0.22554 -0.11814 1.6110001 6.8203312e-39 0.009785925 -0.83207577 -0.55457562 0.0076650297
0.23495241 -0.11701523 1.6124001 7.0040036e-39 0.093816198 -0.85917079 -0.50301498 0.011670569
0.24480212 -0.1167042 1.6166 6.9128856e-39 0.10127644 -0.86402822 -0.49315143 0.010276646
0.25443086 -0.11722058 1.6152 7.0036435e-39 0.036469031 -0.8648591 -0.50068831 0.013115629
0.26568446 -0.11643208 1.6156667 6.7281342e-39 0.032429226 -0.86088079 -0.50777215 0.013627036
0.27416503 -0.11443262 1.6127501 6.7281328e-39 0.036780294 -0.85233539 -0.52170062 0.015180033
0.28369239 -0.11301667 1.6145 6.8203312e-39 0.013386149 -0.85364234 -0.52068752 0.01416577
0.30591258 -0.11651541 1.6168333 6.6362959e-39 -0.050475858 -0.89344054 -0.44633642 0.0064324853
0.31566969 -0.11702906 1.6168333 6.6362973e-39 -0.017133072 -0.88246691 -0.47006238 0.0063903509
0.32538381 -0.1152981 1.6141112 6.7288531e-39 -0.010403046 -0.85028982 -0.52621192 0.0077718087
0.33544099 -0.11540699 1.6156667 6.9128856e-39 -0.043210533 -0.86842197 -0.49393937 0.0046269493
0.34519091 -0.11711824 1.615 6.8214088e-39 -0.023156682 -0.87487197 -0.48380038 0.0047728992
0.35634217 -0.11775786 1.61625 6.7288531e-39 0.026192166 -0.88602269 -0.4629015 0.0049302452
0.36555836 -0.1144293 1.6127501 6.6355826e-39 0.098731801 -0.87935674 -0.46581519 0.0029414822
0.37517571 -0.11378714 1.6145 6.5441059e-39 0.077080041 -0.86905432 -0.48867503 0.0048301374
0.3851814 -0.11404204 1.615 6.5448247e-39 -0.027280901 -0.87028587 -0.49179089 0.0090104574
0.39455622 -0.11426803 1.6120001 6.6362987e-39 -0.03574533 -0.8414253 -0.53918988 0.013504454
0.40366319 -0.11540922 1.6156667 6.2675162e-39 -0.0050946008 -0.8707068 -0.49177608 0.011358627
0.41451621 -0.11557144 1.618 5.991651e-39 0.066621795 -0.89307559 -0.44494668 0.0096302917
0.42530289 -0.11557144 1.618 6.2689497e-39 0.054440975 -0.88693571 -0.45867336 0.0072895964
0.43420288 -0.11200286 1.6110001 6.72813e-39 0.0019308294 -0.88845372 -0.45896211 0.010204742
0.44494289 -0.11200286 1.6110001 6.7274139e-39 -0.045594953 -0.89667368 -0.4403379 0.011001511
0.45485646 -0.11467929 1.61625 6.6362945e-39 -0.10625941 -0.88067997 -0.4616403 0.0064864419
0.46486431 -0.11698739 1.61625 6.8206858e-39 -0.094030283 -0.89191192 -0.44232503 0.0092073195
0.4747166 -0.11722058 1.6152 6.8203312e-39 0.017927635 -0.87148875 -0.49008775 0.012762464
0.4850184 -0.11421525 1.6133333 6.9121639e-39 0.087852828 -0.874502 -0.47699913 0.0095215673
0.49565172 -0.11390881 1.61625 6.7284943e-39 -0.015575606 -0.86243236 -0.50593263 0.013585538
0.50455374 -0.11537276 1.6152 6.5451821e-39 -0.12685093 -0.85163754 -0.50854921 0.0082927207
0.51436019 -0.11669128 1.6121668 6.45442e-39 -0.043263108 -0.85133034 -0.52284318 0.01219464
0.52536911 -0.1162396 1.615 6.4533466e-39 0.1245563 -0.84499162 -0.52007204 0.010165561
0.53546578 -0.11200286 1.6110001 6.4522676e-39 0.12478002 -0.85095137 -0.51020753 0.01435778
0.54549718 -0.11248953 1.618 6.4526291e-39 0.0023297986 -0.86690766 -0.49846327 0.014826396
0.5540911 -0.114144 1.6152 6.268598e-39 -0.11518835 -0.88058817 -0.45966953 0.012462987
0.56552958 -0.11659875 1.618 6.2700315e-39 -0.11859883 -0.88485163 -0.45052397 0.0141445
