# .PCD v0.7 - Point Cloud Data file format
VERSION 0.7
FIELDS x y z rgb normal_x normal_y normal_z curvature
SIZE 4 4 4 4 4 4 4 4
TYPE F F F F F F F F
COUNT 1 1 1 1 1 1 1 1
WIDTH 570
HEIGHT 1
VIEWPOINT 0 0 0 1 0 0 0
POINTS 570
DATA ascii
0.060454704 0.096011281 1.2341774 0 -0.16731057 0.12726164 -0.97765619 0.0059438394
0.062081438 0.091780126 1.236748 0 -0.1662894 0.14088255 -0.97596103 0.0052620252
0.062611744 0.087457538 1.2396513 0 -0.16704006 0.14642623 -0.97501642 0.0055283038
0.066550456 0.078044474 1.2517061 0 -0.023727512 0.11232228 -0.99338847 0.0077882204
0.068671264 0.075057983 1.2559671 0 0.041628011 0.10160868 -0.99395311 0.0056561851
0.070379935 0.072908282 1.2590022 0 0.073959976 0.10354482 -0.99187118 0.0032727139
0.072564878 0.070887029 1.2636083 0 0.032746807 0.098469876 -0.99460107 0.0059483247
0.073820889 0.068539202 1.2677424 0 -0.036580596 0.095313765 -0.99477494 0.015436505
0.075588129 0.06675446 1.272401 0 -0.14881375 0.10780324 -0.98297149 0.028413439
0.077035144 0.064343274 1.2755696 0 -0.24968337 0.11566921 -0.96139425 0.038403336
0.078076176 0.061182797 1.2791762 0 -0.34278727 0.092943184 -0.93480396 0.04487228
0.080052532 0.057991028 1.2804449 0 -0.48424369 0.12234898 -0.86633641 0.055680763
-0.049991399 0.29385549 0.93741065 0 0.78251404 0.071476512 -0.61851668 0.047220439
-0.049070925 0.29581118 0.93977749 0 0.68831635 0.092288911 -0.7195161 0.054233976
0.024054825 0.16950661 1.126569 0 -0.074481912 0.013479568 -0.99713123 0.0047001862
0.025644317 0.1666981 1.1306465 0 -0.052928817 0.01982837 -0.9984014 0.0044256067
0.027233809 0.16388959 1.134724 0 -0.038470019 0.031143468 -0.99877429 0.0059290803
0.028823301 0.16108108 1.1388015 0 -0.0052777273 0.056139402 -0.99840897 0.0043734969
0.031472445 0.1564002 1.1455972 0 0.031827699 0.059457261 -0.99772334 0.0021412498
0.033061936 0.15359169 1.1496747 0 0.049595755 0.068556868 -0.99641365 0.0030796425
0.037830412 0.14516616 1.1619072 0 0.00074494263 0.083465025 -0.99651045 0.0041825012
0.042598881 0.13674057 1.1741395 0 -0.0085512325 0.096268728 -0.99531865 0.0070274076
0.045248032 0.13205975 1.1809354 0 -0.030181384 0.097214773 -0.99480569 0.0063897492
0.046837531 0.12925124 1.1850128 0 -0.028132759 0.08379025 -0.99608624 0.0054327459
0.048427008 0.12644273 1.1890903 0 -0.028940653 0.076686762 -0.99663514 0.0048148776
0.050016493 0.12363422 1.1931677 0 -0.022874868 0.05452216 -0.99825048 0.0037732429
0.054784968 0.11520863 1.2054001 0 0.0016852627 0.023919776 -0.99971247 0.00062500581
0.056374453 0.11240011 1.2094777 0 0.0031128677 0.025053198 -0.99968129 0.0014363052
0.059023596 0.10771924 1.2162734 0 -0.016671527 0.03924742 -0.99909043 0.0021019902
0.060613081 0.10491073 1.2203509 0 -0.030463958 0.048949029 -0.99833661 0.0024675315
0.065381564 0.096485198 1.2325833 0 -0.15085213 0.10758392 -0.98268473 0.0060125547
0.065768465 0.092134774 1.2355549 0 -0.1646211 0.13259409 -0.97740406 0.0048254365
0.067235611 0.088134229 1.2387221 0 -0.16592109 0.1332227 -0.9770987 0.0052278885
0.070198596 0.084531188 1.2410121 0 -0.14593689 0.11356924 -0.98275352 0.0071421373
0.071226165 0.081193984 1.2460072 0 -0.077712737 0.12822996 -0.98869503 0.0081270952
0.071726821 0.078787863 1.2496507 0 -0.042964984 0.11868962 -0.99200141 0.0074661295
0.073037565 0.076091528 1.253603 0 0.016454717 0.11243248 -0.99352312 0.0076442393
0.074707896 0.074437499 1.2583472 0 0.076741911 0.10656698 -0.99133956 0.0034743212
0.076569013 0.07296443 1.2624688 0 0.049358923 0.095609233 -0.99419445 0.0047409991
0.078138322 0.070095003 1.2667768 0 -0.035267834 0.087769322 -0.9955163 0.015056211
0.079923436 0.067887247 1.2706828 0 -0.11417338 0.097347066 -0.98867995 0.020920809
0.081509434 0.065084875 1.2747514 0 -0.2342604 0.11201614 -0.96569896 0.032648731
0.082814403 0.061243951 1.2780966 0 -0.38173673 0.12160884 -0.91623598 0.042061191
0.082502425 0.058226705 1.2796521 0 -0.47606355 0.11971321 -0.87122458 0.051871285
-0.045427635 0.29596597 0.93612206 0 0.78913927 0.01572229 -0.61401308 0.039430469
-0.044974245 0.29620528 0.93845195 0 0.69296932 0.06268017 -0.71823722 0.051812623
0.025802732 0.17559761 1.1168199 0 -0.079939373 0.018067876 -0.99663597 0.0082290163
0.030571207 0.16717201 1.1290524 0 -0.045306046 0.03496689 -0.99836099 0.0066019287
0.032160684 0.1643635 1.1331298 0 -0.023995098 0.052955531 -0.99830854 0.0047803787
0.033750191 0.16155499 1.1372073 0 -0.00057574047 0.070471227 -0.99751365 0.0047712051
0.039578304 0.1512571 1.152158 0 0.042104922 0.062840089 -0.99713504 0.004434065
0.047525771 0.13721454 1.1725454 0 -0.0056220558 0.073419601 -0.99728531 0.0085317558
0.053353906 0.12691665 1.1874961 0 -0.045776989 0.066467844 -0.9967379 0.0056795389
0.054943368 0.12410814 1.1915736 0 -0.044081587 0.046137471 -0.997962 0.005696875
0.065539964 0.10538465 1.2187567 0 -0.018827237 0.024606274 -0.99951994 0.0024591577
0.070308447 0.096959114 1.2309891 0 -0.13178502 0.074313454 -0.98848885 0.0064442726
0.071897924 0.094150603 1.2350667 0 -0.15857451 0.085740037 -0.98361719 0.0068858545
0.072136037 0.08823663 1.2377086 0 -0.15867504 0.099852346 -0.98226869 0.0071085077
0.073462069 0.085316539 1.2404606 0 -0.15306228 0.095971212 -0.98354536 0.0076562315
0.075045213 0.082286358 1.2442652 0 -0.10592484 0.086140156 -0.99063605 0.0098065762
0.076624915 0.079725802 1.2485776 0 -0.048504859 0.079816356 -0.99562877 0.01051139
0.078344688 0.076863348 1.2521755 0 0.0082926741 0.084109165 -0.99642205 0.0096747708
0.079178065 0.075803339 1.2569501 0 0.062670723 0.07845892 -0.99494553 0.0065374193
0.080952898 0.073492229 1.2612565 0 0.044942491 0.076194264 -0.99607962 0.0060337326
0.08249858 0.07070899 1.2651633 0 -0.0092632566 0.082609236 -0.99653894 0.010155819
0.084020138 0.068281293 1.2693572 0 -0.088934734 0.087629087 -0.99217528 0.017670847
0.085606143 0.065478981 1.2734258 0 -0.23916277 0.10796397 -0.96495855 0.029243426
0.087186314 0.062224507 1.2769608 0 -0.36407882 0.10416304 -0.92552507 0.036277529
0.088218853 0.058776617 1.2778025 0 -0.51553059 0.096727051 -0.85139418 0.053457718
-0.040652797 0.29667068 0.93419659 0 0.80868071 0.013081565 -0.58810234 0.041332886
0.077041201 0.089771748 1.2372527 0 -0.16077015 0.06030168 -0.98514807 0.0079333456
0.078362964 0.086730957 1.2398839 0 -0.1378817 0.061468534 -0.98853946 0.0096320035
0.079948634 0.083695173 1.2436967 0 -0.10534801 0.055453349 -0.99288809 0.011244537
0.081534348 0.081598699 1.248524 0 -0.041289203 0.059199862 -0.99739188 0.011113146
0.083193094 0.077823579 1.2507346 0 -0.012162175 0.06342914 -0.99791223 0.011263468
0.084035143 0.076503217 1.2552161 0 0.04975576 0.056919549 -0.99713814 0.0073017036
0.08576417 0.074358881 1.2596296 0 0.050282292 0.05476936 -0.9972322 0.0065584048
0.087350175 0.071556568 1.2636981 0 0.0038989852 0.058640387 -0.99827158 0.010134784
0.08893618 0.068754196 1.2677666 0 -0.11057647 0.063387334 -0.99184418 0.021739567
0.090522155 0.065951824 1.2718351 0 -0.24974465 0.07461413 -0.9654327 0.031744856
0.092108175 0.063149512 1.2759036 0 -0.38421273 0.080987908 -0.91968554 0.036213845
0.093683459 0.06007123 1.2776219 0 -0.45677763 0.082052901 -0.88578862 0.044258468
-0.035206199 0.29694915 0.93281484 0 0.84368473 -0.0019691067 -0.53683537 0.044103261
0.035603657 0.17357898 1.1182405 0 -0.086464003 0.0072095143 -0.99622887 0.0089075649
0.038782641 0.1679619 1.1263955 0 -0.021651335 0.029516347 -0.99932981 0.0070309192
0.040372133 0.16515338 1.1304729 0 0.00027308281 0.020972753 -0.99978 0.005665848
0.041961625 0.16234487 1.1345503 0 0.0069041788 0.030574713 -0.99950862 0.0062178508
0.064744286 0.12208945 1.1929941 0 -0.055019841 -0.035818696 -0.99784261 0.0069122291
0.066333801 0.11928099 1.1970716 0 -0.029916812 -0.041532286 -0.99868917 0.0056906636
0.067923293 0.11647242 1.201149 0 -0.0033881078 -0.03897414 -0.9992345 0.0019927565
0.069512777 0.11366391 1.2052264 0 -0.00069745845 -0.03264115 -0.9994669 0.0035188312
0.078519888 0.097748995 1.2283322 0 -0.11604781 -0.0020684798 -0.99324149 0.0077820062
0.080109373 0.094940484 1.2324096 0 -0.145761 0.0081652123 -0.98928612 0.0081507899
0.082221583 0.089777589 1.2363403 0 -0.16091762 0.014041583 -0.98686796 0.007621509
0.083278909 0.0879094 1.2390525 0 -0.13874091 0.020153802 -0.99012363 0.0092450473
0.084864914 0.085107028 1.2431211 0 -0.086516634 0.022588471 -0.99599427 0.011267529
0.086444817 0.081837296 1.2466798 0 -0.037294079 0.029696384 -0.99886298 0.011663698
0.088151187 0.078068435 1.2492915 0 0.0055185929 0.03332172 -0.99942946 0.0097594364
0.089011163 0.077344716 1.2544336 0 0.054258227 0.021598827 -0.99829334 0.00674091
0.090680227 0.074831784 1.258039 0 0.057431012 0.019590871 -0.99815726 0.0054227044
0.092266217 0.072029412 1.2621074 0 0.017276518 0.030715752 -0.99937886 0.0082383873
0.093852207 0.069227099 1.266176 0 -0.099778578 0.040403113 -0.99418902 0.020652521
0.095438212 0.066424727 1.2702445 0 -0.24277602 0.043768022 -0.96909451 0.034819853
0.097024202 0.063622355 1.274313 0 -0.38474789 0.073191665 -0.92011523 0.039413769
0.098588005 0.060143828 1.2775806 0 -0.58619326 0.098015442 -0.80422038 0.050609943
0.10041581 0.05700469 1.2784225 0 -0.68062776 0.094690949 -0.7264843 0.055576775
-0.03074269 0.2980386 0.93074441 0 0.86864245 -0.043906432 -0.49349016 0.045988176
0.040530547 0.17405289 1.1166463 0 -0.072608374 -0.024737019 -0.99705368 0.0097033838
0.059074573 0.14128685 1.1642168 0 0.017503737 -0.088346146 -0.99593604 0.012151109
0.06808167 0.12537193 1.1873224 0 -0.071483552 -0.072897509 -0.9947744 0.0070631714
0.069671176 0.12256342 1.1913999 0 -0.060082242 -0.079382621 -0.99503189 0.0059109824
0.071260653 0.11975491 1.1954774 0 -0.030003322 -0.076687254 -0.99660367 0.0040027434
0.072850153 0.1169464 1.1995549 0 9.9158729e-05 -0.070660204 -0.99750042 0.0024388609
0.074439645 0.11413789 1.2036324 0 0.0063695395 -0.073616616 -0.99726629 0.0018734849
0.077088796 0.10945702 1.2104281 0 -0.0022785093 -0.068516783 -0.99764735 0.0030028652
0.078678273 0.1066485 1.2145056 0 -0.0041065528 -0.066100545 -0.99780452 0.0031531949
0.081857257 0.10103142 1.2226605 0 -0.053302146 -0.061605889 -0.99667627 0.0044697654
0.083446741 0.098222911 1.226738 0 -0.097759143 -0.048474263 -0.99402887 0.0055073416
0.087137625 0.090250492 1.2347496 0 -0.13965982 -0.015428626 -0.99007934 0.0066131554
0.088190958 0.088146329 1.2372106 0 -0.12440392 -0.0072899577 -0.9922049 0.007398848
0.089776173 0.085345328 1.2412772 0 -0.078575805 0.0078366371 -0.99687731 0.0087301284
0.091353297 0.082076132 1.2448356 0 -0.035746098 0.0083378926 -0.99932611 0.0091116428
0.092920579 0.078579068 1.2481313 0 0.0099056466 0.009792041 -0.99990296 0.0072035324
0.094631374 0.075484157 1.2514734 0 0.051107343 0.0046192766 -0.9986825 0.0048795408
0.095480822 0.073827207 1.2555821 0 0.063337184 0.0021060207 -0.99798995 0.0037984357
0.097182259 0.072502315 1.2605168 0 0.010816355 0.0072227251 -0.99991542 0.0067318967
0.098768264 0.069699943 1.2645853 0 -0.071377009 0.020432832 -0.99724013 0.017858729
0.10035425 0.066897631 1.2686539 0 -0.2129917 0.046445128 -0.97594947 0.035614394
0.10194024 0.064095259 1.2727222 0 -0.36412653 0.067017816 -0.92893511 0.043050356
0.10352625 0.061292946 1.2767909 0 -0.48579815 0.076790795 -0.8706913 0.042456608
0.104499 0.057397485 1.2771013 0 -0.71335977 0.08288011 -0.69587982 0.062400028
-0.026619583 0.29866064 0.92959011 0 0.87943131 -0.052279275 -0.47314635 0.045999005
0.062411956 0.14456928 1.1585451 0 0.013653202 -0.12205558 -0.99242938 0.0092669204
0.064001441 0.14176077 1.1626227 0 0.0079785027 -0.13429198 -0.9909097 0.0095369136
0.073008552 0.12584585 1.1857283 0 -0.069611311 -0.11239013 -0.99122286 0.0058499365
0.077777021 0.11742032 1.1979606 0 -0.0032972617 -0.089678101 -0.99596536 0.0022463452
0.079366513 0.1146118 1.2020382 0 0.0024273021 -0.091318488 -0.99581879 0.0019949565
0.082015663 0.10993093 1.2088339 0 5.0669546e-06 -0.084444016 -0.99642825 0.002079173
0.083605155 0.10712242 1.2129114 0 0.00044430475 -0.083754934 -0.99648631 0.0025307769
0.08519464 0.10431391 1.2169888 0 -0.019470163 -0.081776775 -0.9964605 0.0024848301
0.086784139 0.10150534 1.2210664 0 -0.049568702 -0.077274926 -0.99577683 0.0027716458
0.088373624 0.098696887 1.2251438 0 -0.084560208 -0.073394753 -0.99371159 0.003508423
0.0923822 0.090920627 1.2316837 0 -0.1201127 -0.033928324 -0.99218035 0.0043608602
0.093068704 0.086966991 1.2338641 0 -0.11125339 -0.019429903 -0.9936021 0.0049065878
0.094645083 0.083937585 1.2376685 0 -0.084853515 0.0022678953 -0.99639088 0.0055758874
0.096231759 0.081378102 1.2419782 0 -0.036546353 0.0069898935 -0.99930751 0.006518322
0.097415201 0.078173578 1.2461228 0 0.0074938247 0.0097176842 -0.99992472 0.0061823637
0.099183187 0.075538695 1.2498999 0 0.048867743 0.01746683 -0.99865252 0.0044068722
0.10074108 0.074269831 1.2543755 0 0.066043541 0.019110629 -0.9976337 0.0033753158
0.1020983 0.072975218 1.2589262 0 0.025380146 0.028028723 -0.99928486 0.0071086711
0.10368429 0.070172846 1.2629945 0 -0.068460107 0.048617855 -0.99646854 0.021306485
0.10527028 0.067370534 1.2670631 0 -0.20942238 0.070459619 -0.97528338 0.045321289
0.10685629 0.064568162 1.2711316 0 -0.34649155 0.07152503 -0.93532228 0.047072772
0.10842086 0.061314285 1.2746683 0 -0.5168916 0.065172866 -0.85356635 0.052694935
0.11103205 0.058025897 1.2749875 0 -0.67507029 0.05787877 -0.73547953 0.074384093
-0.021598347 0.29819185 0.92758799 0 0.90466964 -0.045327615 -0.42369598 0.046413835
0.048794776 0.17780924 1.1093805 0 -0.043249112 -0.10846316 -0.99315923 0.009535538
0.050384246 0.17500073 1.1134579 0 -0.054279801 -0.10207688 -0.99329454 0.0095925005
0.059391372 0.15908581 1.1365637 0 -0.01186501 -0.096981786 -0.99521542 0.0063890438
0.060980849 0.1562773 1.1406411 0 -0.025680626 -0.10123651 -0.99453086 0.005993864
0.065749317 0.14785177 1.1528735 0 -0.0030129489 -0.12684532 -0.99191791 0.0053163883
0.068453372 0.14341444 1.1555758 0 -0.0057136035 -0.12809129 -0.99174595 0.007520305
0.069769755 0.14078313 1.1594262 0 -0.0058292029 -0.13282244 -0.99112272 0.008025676
0.070827082 0.13891488 1.1621385 0 0.00014093367 -0.13713318 -0.9905526 0.0072636777
0.076113738 0.1295737 1.1757002 0 -0.02232896 -0.1299624 -0.99126744 0.006938885
0.076895446 0.12753832 1.1787199 0 -0.027150508 -0.13350426 -0.99067628 0.0065794974
0.078076489 0.12496084 1.1825103 0 -0.048147526 -0.11526697 -0.992167 0.0067932685
0.080078736 0.12256783 1.1858714 0 -0.03526907 -0.077794269 -0.9963454 0.0053804424
0.081114389 0.12070274 1.1922891 0 -0.013717063 -0.073155679 -0.99722618 0.0022927695
0.083185285 0.11763328 1.194834 0 -0.0057922853 -0.056342483 -0.99839473 0.0019315132
0.084281728 0.11361504 1.1990201 0 0.0010112481 -0.067975007 -0.99768651 0.0017452197
0.085867733 0.11081266 1.2030886 0 0.0014337661 -0.070207536 -0.99753135 0.0023139298
0.087453723 0.10801029 1.2071571 0 -0.0037033909 -0.070863582 -0.99747914 0.0023163718
0.088775367 0.10567504 1.2105476 0 -0.00010187353 -0.071457379 -0.99744368 0.0033591178
0.090097055 0.10333973 1.213938 0 -0.011438179 -0.072927177 -0.99727166 0.0032674535
0.09168306 0.10053742 1.2180065 0 -0.032540064 -0.067810267 -0.99716747 0.0039049909
0.093335122 0.097618222 1.2222445 0 -0.05713452 -0.052360535 -0.99699247 0.0046345708
0.094855025 0.094932735 1.2261436 0 -0.086125627 -0.043764673 -0.99532259 0.0047272355
0.09644106 0.092130363 1.230212 0 -0.10169415 -0.023739463 -0.99453241 0.0043809032
0.098001063 0.088382959 1.2332793 0 -0.089079022 -0.0066423076 -0.99600244 0.0045568375
0.099561036 0.084879756 1.2365859 0 -0.067005612 0.0048005795 -0.99774104 0.0052784495
0.10113421 0.08185041 1.2403908 0 -0.017905556 0.017551441 -0.99968565 0.005964784
0.10270637 0.078822732 1.2441933 0 0.015930301 0.031024653 -0.99939167 0.0049201245
0.10390326 0.076273263 1.2479377 0 0.048171498 0.041746125 -0.99796629 0.0038834843
0.105689 0.075893044 1.2530806 0 0.062382761 0.04928489 -0.9968347 0.0038545842
0.10701434 0.073448062 1.2573354 0 0.032398637 0.057948444 -0.99779373 0.0075305668
0.10860033 0.07064575 1.2614039 0 -0.059372496 0.062456261 -0.99628013 0.022989748
0.11018632 0.067843378 1.2654724 0 -0.22854026 0.085977308 -0.9697305 0.049113158
0.11177233 0.065041065 1.269541 0 -0.3734208 0.059865482 -0.92572838 0.059635516
0.11331987 0.06156081 1.2728138 0 -0.53308225 0.061500218 -0.84382522 0.064216375
-0.015902057 0.29903603 0.92713875 0 0.89570522 -0.013390678 -0.44444668 0.044181671
0.052132152 0.18109173 1.1037089 0 -0.037063874 -0.11475915 -0.99270165 0.0087181022
0.055415843 0.17683119 1.1060359 0 -0.036703054 -0.10833635 -0.99343652 0.0091784708
0.055311128 0.17547464 1.1118639 0 -0.036338039 -0.10738803 -0.99355292 0.0091887573
0.060079612 0.16704911 1.1240962 0 0.0039024239 -0.064685225 -0.9978981 0.0061060651
0.061845914 0.16279829 1.1266729 0 -0.0090543395 -0.063392498 -0.99794757 0.0079938946
0.063654363 0.15973008 1.1311148 0 -0.025649304 -0.076164983 -0.99676526 0.0088851089
0.065907739 0.15675122 1.1390469 0 -0.019523811 -0.085530177 -0.99614429 0.0075742262
0.070045501 0.15001965 1.1469097 0 -0.021098373 -0.07773231 -0.99675101 0.0056228121
0.071416914 0.14652306 1.1502389 0 -0.01198657 -0.07877358 -0.99682045 0.0058314856
0.071736738 0.14406794 1.1539898 0 -0.014387265 -0.097471014 -0.99513435 0.0075461701
0.073866472 0.14117724 1.1581006 0 -0.010139619 -0.096818462 -0.9952504 0.0097209513
0.075591207 0.1385113 1.1619332 0 -0.0075475895 -0.098190911 -0.995139 0.010549136
0.078399628 0.13545716 1.1661789 0 -0.0022824854 -0.088439465 -0.99607891 0.010708453
0.079179458 0.13331604 1.1693628 0 -0.0064148763 -0.082520157 -0.99656874 0.011516614
0.079952702 0.13080484 1.1731217 0 -0.0077755433 -0.088242613 -0.99606866 0.011173817
0.081267796 0.12809962 1.1770869 0 -0.01171997 -0.079490721 -0.99676669 0.01066534
0.082853794 0.12529725 1.1811554 0 -0.02841978 -0.079793856 -0.9964062 0.0092325155
0.084175453 0.122962 1.1845459 0 -0.015738863 -0.035215631 -0.99925578 0.0071014441
0.08766444 0.11985022 1.1887622 0 -0.013429623 0.0053527169 -0.99989551 0.0068952623
0.087981775 0.11725414 1.1927321 0 -0.0069306153 -0.0070550898 -0.99995112 0.0043913396
0.08919777 0.11408788 1.1974294 0 -0.0014872592 -0.021852128 -0.99976009 0.0037258693
0.090783775 0.11128557 1.201498 0 -5.8606092e-05 -0.030436806 -0.99953669 0.0041428837
0.092369765 0.1084832 1.2055665 0 -0.0048111924 -0.034171727 -0.99940437 0.004972199
0.093691409 0.10614794 1.208957 0 0.0021826131 -0.027647853 -0.99961537 0.00568404
0.095013082 0.10381263 1.2123473 0 -0.0053896513 -0.024751522 -0.99967909 0.0053188093
0.096599087 0.10101032 1.2164159 0 -0.01981378 -0.016046254 -0.99967492 0.0060429345
0.098185077 0.098207951 1.2204844 0 -0.043136738 -0.0071033435 -0.99904394 0.0064708665
0.099771082 0.095405579 1.2245529 0 -0.061767258 0.0036432955 -0.99808395 0.0047393469
0.10135707 0.092603266 1.2286214 0 -0.076233596 0.0094912304 -0.9970448 0.0039531225
0.10292569 0.089328825 1.2321893 0 -0.066078275 0.021816982 -0.99757588 0.0052514141
0.10419688 0.085507095 1.2349591 0 -0.054795045 0.033532944 -0.9979344 0.005363727
0.10629815 0.083688676 1.2401919 0 0.0030863017 0.055383179 -0.99846041 0.0055872779
0.107361 0.079916298 1.2430758 0 0.032729551 0.059515458 -0.99769068 0.0046999627
0.10910267 0.078384519 1.2469342 0 0.055927057 0.077039197 -0.99545825 0.0031297987
0.11034438 0.076723337 1.2516763 0 0.06419339 0.074410632 -0.99515945 0.003695426
0.11193039 0.073920965 1.2557447 0 0.0395534 0.080216825 -0.99599236 0.0050742445
0.11351638 0.071118653 1.2598133 0 -0.045432057 0.094554767 -0.99448246 0.018752074
0.11510237 0.068316281 1.2638818 0 -0.19748159 0.09646675 -0.97554868 0.044886403
0.11668838 0.065513909 1.2679503 0 -0.40841419 0.074204691 -0.90977556 0.070107616
0.11811984 0.062320709 1.2719567 0 -0.56360626 0.050214991 -0.82451588 0.072235748
0.11919838 0.058811426 1.2723451 0 -0.70995033 0.047147296 -0.70267183 0.084651917
-0.011609651 0.29754746 0.92499161 0 0.90829623 -0.0052305469 -0.41829482 0.04330457
0.031963829 0.22559667 1.0345138 0 0.046131294 -0.11808879 -0.9919309 0.017757863
0.039044797 0.21339548 1.0559034 0 -0.049337327 -0.10269412 -0.99348867 0.014834381
0.040634289 0.21058697 1.0599809 0 -0.060353082 -0.10870761 -0.99223995 0.015733318
0.04328344 0.20590609 1.0667766 0 -0.061244566 -0.10980142 -0.99206489 0.015126289
0.044872925 0.20309758 1.0708542 0 -0.053356458 -0.10898972 -0.99260986 0.014848255
0.046462417 0.20028907 1.0749316 0 -0.051896755 -0.097523868 -0.9938792 0.015649984
0.048051909 0.19748056 1.0790091 0 -0.03739785 -0.10741115 -0.99351108 0.015292988
0.049641393 0.19467205 1.0830865 0 -0.0416256 -0.10308281 -0.99380141 0.014922785
0.051230885 0.19186354 1.0871639 0 -0.032203674 -0.099044688 -0.99456173 0.015508134
0.052820377 0.18905503 1.0912414 0 -0.036186423 -0.096697591 -0.99465579 0.014285891
0.055153571 0.18550187 1.0944906 0 -0.026116379 -0.073867269 -0.99692607 0.015095832
0.057688557 0.18197465 1.0976644 0 -0.032854035 -0.057285111 -0.99781716 0.015404172
0.057568587 0.18123472 1.1006858 0 -0.032828473 -0.069758885 -0.99702358 0.014129695
0.058693204 0.17714649 1.1049755 0 -0.034064133 -0.076288715 -0.99650371 0.011947463
0.060292393 0.17508405 1.1078942 0 -0.028128045 -0.07667885 -0.99665898 0.011271152
0.061827496 0.17314011 1.1143471 0 -0.009362584 -0.05935701 -0.99819291 0.0092370436
0.063979879 0.16780531 1.1185372 0 0.013140939 -0.032194108 -0.99939525 0.0093761105
0.065037206 0.16593707 1.1212494 0 0.0082636047 -0.027619369 -0.99958438 0.010347262
0.066623211 0.16313475 1.1253181 0 -0.011520867 -0.028285971 -0.99953347 0.01156107
0.068209186 0.16033238 1.1293865 0 -0.032072451 -0.021111645 -0.99926257 0.012346027
0.0703502 0.15807587 1.1325119 0 -0.031200135 -0.00053251028 -0.99951303 0.012870069
0.071086615 0.15568435 1.1360917 0 -0.01946125 -0.0047036936 -0.99979955 0.012514355
0.072438508 0.15285951 1.1402359 0 -0.013257337 -0.0014100897 -0.99991113 0.010536532
0.0734808 0.15014553 1.1442621 0 -0.0067117205 -0.024188446 -0.99968487 0.00690383
0.075142317 0.14720976 1.1485244 0 -0.0056474153 0.0029773419 -0.99997962 0.0089128846
0.076435886 0.14312702 1.1518492 0 -0.016225131 -0.018086143 -0.99970478 0.010017922
0.078782499 0.14165014 1.1565099 0 -0.0082936259 -0.00095152407 -0.99996513 0.013596074
0.080368511 0.13884777 1.1605785 0 -0.0017201038 -6.4166736e-05 -0.99999851 0.014809486
0.081954494 0.13604546 1.1646469 0 -0.00096670788 0.016310716 -0.99986649 0.017135739
0.083276153 0.13371015 1.1680374 0 0.0046843472 0.01176197 -0.99991983 0.01733207
0.084597811 0.13137484 1.1714277 0 -0.0042395224 0.01459062 -0.99988455 0.016445987
0.086183816 0.12857252 1.1754963 0 -0.0050760238 0.024041535 -0.9996981 0.015710639
0.087769806 0.12577015 1.1795647 0 0.0032554993 0.034232918 -0.9994086 0.01203067
0.089355811 0.12296784 1.1836333 0 0.000374311 0.055797886 -0.99844199 0.01154544
0.090941802 0.12016547 1.1877018 0 -0.00369919 0.066435426 -0.99778384 0.010999463
0.092527792 0.11736315 1.1917703 0 -0.01466002 0.075696245 -0.99702317 0.0096740322
0.094113812 0.11456078 1.1958388 0 -0.0050497269 0.067160487 -0.99772942 0.0085902261
0.095699787 0.11175847 1.1999073 0 -0.0015994726 0.076546773 -0.99706471 0.0081461919
0.097285807 0.1089561 1.2039759 0 -0.00098954421 0.075620495 -0.99713618 0.0083164498
0.098607451 0.10662079 1.2073662 0 0.0077791237 0.071457893 -0.99741328 0.0079345517
0.099929109 0.10428554 1.2107567 0 -0.0037734678 0.064502485 -0.99791044 0.0087241828
0.10151511 0.10148317 1.2148252 0 -0.023608757 0.064261451 -0.99765378 0.0098582236
0.1031011 0.098680854 1.2188938 0 -0.047265053 0.056805797 -0.99726582 0.0090867914
0.10468709 0.095878482 1.2229621 0 -0.065495037 0.061153695 -0.99597722 0.0078044287
0.1062731 0.093076169 1.2270308 0 -0.068608396 0.057211492 -0.9960019 0.0053585824
0.10757603 0.090105057 1.2307152 0 -0.05598934 0.06015572 -0.9966175 0.0042954655
0.10887732 0.086948574 1.2348418 0 -0.026155608 0.072461158 -0.99702823 0.0051912852
0.11103109 0.084669113 1.2392362 0 0.011976414 0.084653489 -0.99633849 0.0048319357
0.11235276 0.082333803 1.2426267 0 0.037542898 0.096800514 -0.99459547 0.004057039
0.11367442 0.079998553 1.2460171 0 0.050421085 0.094165698 -0.99427891 0.003218197
0.11526041 0.077196181 1.2500856 0 0.06254968 0.093456514 -0.99365658 0.002806975
0.11637823 0.074348807 1.2543056 0 0.051063225 0.098342918 -0.99384165 0.0029164739
0.1184324 0.071591496 1.2582226 0 -0.065088898 0.092789538 -0.99355602 0.02092419
0.12001839 0.068789184 1.2622912 0 -0.20852482 0.084035978 -0.97439998 0.045927595
0.12073748 0.066297412 1.2660294 0 -0.40137079 0.07757777 -0.91262436 0.072394446
0.12231293 0.062903106 1.2710176 0 -0.5683924 0.051291887 -0.82115722 0.070119806
0.12335767 0.060221076 1.2722139 0 -0.62300199 0.0442321 -0.78096867 0.075852238
-0.005893223 0.29809731 0.92314196 0 0.89620185 -0.0050736903 -0.44361746 0.040491767
-0.0048265755 0.30006713 0.92546147 0 0.85081023 -0.01562563 -0.52524072 0.049353018
0.034294665 0.23094267 1.025818 0 -0.032650698 -0.034037758 -0.99888706 0.023194708
0.03453267 0.22899568 1.0287955 0 0.0064869924 -0.048420947 -0.99880594 0.024494523
0.03611866 0.22619331 1.032864 0 0.056984093 -0.046294726 -0.99730116 0.023957971
0.037613705 0.2251035 1.0379994 0 0.062938921 -0.043759994 -0.99705756 0.023533832
0.043971665 0.21386939 1.0543091 0 -0.052586298 -0.01641068 -0.99848151 0.017786132
0.045561165 0.21106088 1.0583867 0 -0.067189783 -0.014446465 -0.9976356 0.019197043
0.048210301 0.20638001 1.0651824 0 -0.060998812 -0.01443071 -0.99803352 0.020274177
0.050128289 0.20143926 1.0688025 0 -0.064678103 -0.021788538 -0.99766827 0.021247268
0.051419623 0.19993353 1.0727651 0 -0.048355479 -0.0037537087 -0.99882317 0.0214947
0.053775955 0.19702947 1.0750039 0 -0.054535702 0.024601415 -0.9982087 0.022450907
0.055890616 0.19329304 1.0804285 0 -0.040373117 0.013720477 -0.99909049 0.021558262
0.057027269 0.19077575 1.0841334 0 -0.02451448 0.0084141493 -0.99966407 0.021328425
0.058516387 0.18763578 1.0887423 0 -0.024438538 0.020335229 -0.99949449 0.021007849
0.059496198 0.18549746 1.091887 0 -0.024451885 0.020337453 -0.99949414 0.021025354
0.060701605 0.18275702 1.0959258 0 -0.024628188 0.029267507 -0.99926817 0.01901467
0.062023271 0.18042171 1.0993164 0 -0.027697843 0.029245174 -0.99918842 0.017069215
0.063609242 0.17761934 1.1033847 0 -0.023701698 0.030690724 -0.99924785 0.015972726
0.06492433 0.174914 1.1073501 0 -0.017966753 0.035147142 -0.99922061 0.013797699
0.066781253 0.17201465 1.1115218 0 0.0044576642 0.052087583 -0.99863255 0.012872959
0.068895921 0.16827822 1.1169465 0 0.010833667 0.01552277 -0.99982083 0.012430189
0.069953248 0.16640997 1.1196588 0 0.0060671065 0.023625607 -0.99970245 0.011991363
0.071400486 0.1634711 1.1239631 0 -0.0092207026 0.022182103 -0.99971145 0.013246921
0.073125243 0.16080528 1.1277959 0 -0.01960633 0.037987437 -0.99908584 0.011505069
0.074446887 0.15847003 1.1311862 0 -0.019014891 0.050740257 -0.99853086 0.011983918
0.075534463 0.15611219 1.1346524 0 -0.010917692 0.065885112 -0.99776751 0.011859795
0.077215806 0.15319586 1.138881 0 -0.00014600161 0.084294528 -0.99644089 0.010896766
0.078123063 0.14975351 1.1423922 0 -0.0043673338 0.080938712 -0.99670953 0.01104427
0.079931706 0.14724886 1.1466174 0 -0.0023859595 0.076621652 -0.99705738 0.010774764
0.081365928 0.14481115 1.150463 0 -0.0032348153 0.090030603 -0.99593377 0.011108537
0.08332853 0.1417591 1.1555481 0 -0.0017016602 0.084196948 -0.99644768 0.013034026
0.085284531 0.13932067 1.1589878 0 0.0067610894 0.10452709 -0.99449903 0.014054215
0.086865336 0.13601124 1.1626078 0 0.0073083076 0.10022716 -0.99493772 0.01459895
0.087972 0.13237244 1.1661155 0 -0.0044368901 0.10534374 -0.99442595 0.014818158
0.089893788 0.13128 1.1698568 0 0.0022692136 0.1183705 -0.99296689 0.013472319
0.091099873 0.12904537 1.1739056 0 0.0018947223 0.11611735 -0.99323368 0.013037177
0.092685863 0.12624305 1.1779741 0 0.0051213903 0.1272348 -0.99185938 0.012379432
0.094271854 0.12344074 1.1820426 0 0.011952952 0.13589108 -0.99065167 0.012050303
0.095573217 0.12017763 1.1854851 0 -0.0064362325 0.14163676 -0.98989779 0.012212055
0.097437054 0.11758929 1.1899456 0 -0.01753754 0.14411786 -0.9894051 0.010361929
0.099029854 0.11503369 1.1942482 0 -0.005229482 0.14988731 -0.98868924 0.0095196022
0.10060787 0.1119867 1.1980796 0 -0.00053327112 0.1507806 -0.98856711 0.0089683197
0.10217766 0.10869795 1.2016697 0 0.0066289417 0.15120289 -0.98848051 0.0081695719
0.1031429 0.10715556 1.2057461 0 -0.0033898915 0.1519627 -0.98838043 0.0088218739
0.10402583 0.10467958 1.2094312 0 -0.0070664557 0.13956392 -0.99018782 0.0094293645
0.1062924 0.10181957 1.2134702 0 -0.036284048 0.13296351 -0.99045652 0.010483552
0.10801717 0.099153697 1.217303 0 -0.052662749 0.11908322 -0.99148667 0.010471985
0.10960317 0.096351385 1.2213715 0 -0.074497633 0.11526953 -0.99053675 0.0094981389
0.11061478 0.093026459 1.224762 0 -0.076718934 0.10721508 -0.9912715 0.0070096641
0.1122982 0.089540422 1.228991 0 -0.047430806 0.088758282 -0.99492323 0.0044932161
0.11407548 0.087607622 1.2335929 0 -0.0064869267 0.092645913 -0.99567801 0.0042492598
0.11594714 0.085142016 1.2376456 0 0.014229557 0.093611464 -0.99550712 0.0031359161
0.11726882 0.082806706 1.2410359 0 0.037006617 0.098053157 -0.99449289 0.0034929144
0.11859047 0.080471456 1.2444265 0 0.054796886 0.087932453 -0.99461812 0.0032675574
0.11990555 0.07776612 1.2483916 0 0.058450967 0.099458776 -0.99332345 0.0028444172
0.12176247 0.074866772 1.2525635 0 0.044604298 0.091839001 -0.9947744 0.0034840484
0.12198728 0.072179675 1.2566905 0 -0.049713135 0.081715152 -0.99541509 0.018383665
0.12385079 0.069650233 1.2602875 0 -0.19034137 0.078042254 -0.97861105 0.045770634
0.12768482 0.065954208 1.269056 0 -0.46930218 0.065131158 -0.8806324 0.065705284
0.12884574 0.061008275 1.271426 0 -0.64582211 0.059216879 -0.76118803 0.074092433
-0.0012831464 0.29755908 0.92317247 0 0.87305862 -0.011345164 -0.48748323 0.046244465
0.033533469 0.24149233 1.0132995 0 -0.10868943 0.016742906 -0.99393475 0.016037771
0.035122976 0.23868382 1.0173769 0 -0.099992044 0.033556156 -0.99442226 0.019181687
0.036712453 0.23587531 1.0214545 0 -0.076181933 0.037724908 -0.99638003 0.022167381
0.037572026 0.23125792 1.0247576 0 -0.035006028 0.031137904 -0.9989019 0.025646418
0.038629357 0.22938973 1.0274699 0 0.0088575343 0.036934752 -0.99927843 0.027678592
0.040215362 0.22658741 1.0315385 0 0.061031435 0.04291537 -0.99721283 0.026181476
0.048898548 0.21434337 1.0527151 0 -0.052208025 0.07559038 -0.99577129 0.015306508
0.050488025 0.2115348 1.0567925 0 -0.060728796 0.078297988 -0.99507862 0.016827269
0.053137191 0.20685399 1.0635883 0 -0.060328092 0.085119568 -0.99454272 0.017579285
0.054726683 0.20404547 1.0676658 0 -0.055059277 0.083351105 -0.99499804 0.019049173
0.056316152 0.2012369 1.0717432 0 -0.051213019 0.085307337 -0.99503762 0.019043619
0.057132658 0.19669574 1.0749359 0 -0.049945578 0.088618405 -0.99481267 0.02096609
0.058982983 0.19342625 1.0796824 0 -0.040103234 0.097818151 -0.99439597 0.018707342
0.060035046 0.19126213 1.0828547 0 -0.02323724 0.092644379 -0.99542809 0.019550728
0.061975345 0.18911624 1.0876966 0 -0.022821601 0.084043533 -0.99620074 0.018817693
0.063331865 0.18671936 1.0911765 0 -0.018147342 0.093015946 -0.99549925 0.018144561
0.065978117 0.18204367 1.0979648 0 -0.0240879 0.092413917 -0.99542928 0.015828297
0.067705959 0.17801344 1.1020592 0 -0.016695743 0.10050892 -0.99479604 0.01310155
0.069291964 0.17521107 1.1061277 0 -0.0093029207 0.11181138 -0.9936859 0.01169747
0.071697295 0.17248756 1.1099312 0 -0.0019080477 0.12005413 -0.99276549 0.0099362172
0.073270716 0.17127943 1.1152363 0 -0.0054209712 0.1039135 -0.99457157 0.0095883412
0.073230594 0.16672522 1.1185985 0 0.010889275 0.065447949 -0.9977966 0.012017066
0.075080924 0.16345578 1.1233449 0 -0.0025218844 0.079156466 -0.99685901 0.010020964
0.07640259 0.16112053 1.1267354 0 -0.004308417 0.09135738 -0.99580884 0.0091647767
0.078358598 0.15868211 1.1301751 0 -0.0089676175 0.10569781 -0.99435788 0.010209118
0.07973855 0.15772992 1.1332641 0 -0.00076728052 0.12012929 -0.99275798 0.0093526943
0.081715591 0.15325934 1.1379976 0 -0.010935445 0.14490907 -0.98938453 0.0092218881
0.082760625 0.1504246 1.1414165 0 -0.0037330822 0.15261158 -0.98827922 0.0092109768
0.084173918 0.14840686 1.145093 0 -0.005355862 0.15170851 -0.98841077 0.010156556
0.08704631 0.14693892 1.1505743 0 -0.0090663396 0.16784318 -0.98577201 0.0090250829
0.08863578 0.14413041 1.1546518 0 0.0050411294 0.17135376 -0.98519665 0.0095505556
0.088839397 0.13990879 1.1574557 0 0.0053943265 0.1580433 -0.98741746 0.0099073583
0.090967253 0.13691241 1.1617308 0 0.0033086513 0.17126764 -0.985219 0.0090305628
0.091737434 0.13416791 1.1647397 0 0.0086426195 0.17348023 -0.98479944 0.0097576352
0.09361057 0.13224185 1.1685115 0 0.0058922186 0.17488451 -0.98457134 0.0098282443
0.09478689 0.12940001 1.1727126 0 0.0006766888 0.17194633 -0.98510611 0.0099471305
0.09596321 0.1265583 1.1769137 0 0.0084260935 0.16619161 -0.98605746 0.010779317
0.098091051 0.1235618 1.1811886 0 0.0066607939 0.18909381 -0.98193645 0.0092490483
0.099690221 0.12149942 1.1841075 0 0.0063715591 0.20115624 -0.97953844 0.0093578659
0.10154055 0.11823004 1.188854 0 -0.015410285 0.20471907 -0.97869945 0.008136075
0.10259788 0.1163618 1.1915665 0 -0.0050518611 0.20159657 -0.97945559 0.0076711397
0.10471255 0.11262542 1.1969911 0 -0.00018959261 0.20774686 -0.97818261 0.0064172563
0.1060342 0.11029005 1.2003815 0 0.018605439 0.20573333 -0.97843122 0.0057749641
0.10653652 0.10787594 1.204037 0 0.0074090287 0.19315311 -0.98114067 0.0077563254
0.11141849 0.10387504 1.2130954 0 -0.066767834 0.18656157 -0.98017186 0.0089910934
0.11205573 0.099345207 1.2163017 0 -0.07236252 0.15620954 -0.98506969 0.0094504673
0.11369985 0.096745431 1.220046 0 -0.079696149 0.13535325 -0.98758698 0.0080425553
0.11466418 0.092430294 1.2230936 0 -0.086148508 0.12026253 -0.98899716 0.005842431
0.11639343 0.090325475 1.2271477 0 -0.064079829 0.10736042 -0.99215299 0.0060046487
0.11845785 0.088338435 1.2322515 0 -0.012137626 0.088916644 -0.99596512 0.0038082986
0.12004386 0.085536063 1.23632 0 0.017876241 0.083450913 -0.99635154 0.0038702863
0.1213655 0.083200753 1.2397103 0 0.029176582 0.079221666 -0.99642998 0.0036360568
0.12268718 0.080865502 1.2431009 0 0.055450968 0.079373777 -0.99530149 0.0032838939
0.1237445 0.078997195 1.2458131 0 0.059489731 0.078548953 -0.9951337 0.0025572639
0.12678355 0.076726019 1.252511 0 0.029901031 0.057917953 -0.99787349 0.0022212097
0.12837303 0.073917508 1.2565885 0 -0.073048219 0.049608868 -0.99609381 0.017618204
0.1299625 0.071108997 1.2606659 0 -0.21881486 0.05043228 -0.97446221 0.044974789
0.13251661 0.064983666 1.2678649 0 -0.47925234 0.03564154 -0.87695318 0.066461779
0.13250083 0.060436845 1.2693579 0 -0.71220946 0.028934224 -0.70137042 0.074440837
0.0031863078 0.29929799 0.91969675 0 0.88381684 0.0052553103 -0.46780357 0.038461655
0.0026334673 0.29983515 0.92266685 0 0.83207059 0.014779687 -0.5544728 0.051702913
0.041668721 0.23165196 1.023432 0 -0.032405388 0.12263772 -0.99192232 0.023283722
0.041906718 0.22970498 1.0264095 0 0.0036313739 0.095260397 -0.99544579 0.025651468
0.043445107 0.22729206 1.0298826 0 0.048162512 0.11397694 -0.99231529 0.022867026
0.059590664 0.1969322 1.0741405 0 -0.042688277 0.12248334 -0.99155211 0.017541027
0.061176661 0.19412982 1.078209 0 -0.044695839 0.14382157 -0.98859376 0.014936697
0.063132659 0.1916914 1.0816488 0 -0.02471867 0.14439516 -0.98921132 0.013776741
0.070428304 0.17778277 1.1019421 0 -0.026643939 0.13282214 -0.99078172 0.010038299
0.071485639 0.17591453 1.1046543 0 -0.0044752387 0.14484087 -0.98944485 0.0087253489
0.091310591 0.14088523 1.1555107 0 0.0081700897 0.17628147 -0.98430592 0.0092691956
0.094508924 0.13676053 1.1613483 0 0.0089549301 0.18789725 -0.98214787 0.0089351581
0.095205024 0.13502175 1.163923 0 0.011710234 0.18611856 -0.98245752 0.0084922956
0.096068576 0.13247824 1.1677163 0 0.012358398 0.18759987 -0.98216778 0.0089576384
0.10399856 0.1184665 1.1880587 0 -0.015240897 0.21450301 -0.9766044 0.0069893925
0.1050559 0.11659825 1.1907711 0 -0.0056346701 0.21397704 -0.97682244 0.0070458441
0.11832522 0.096205354 1.2200766 0 -0.10019439 0.12770322 -0.98673856 0.0086754765
0.11964688 0.093870103 1.2234671 0 -0.10125235 0.11151917 -0.98859066 0.008198983
0.1209387 0.091060102 1.2263632 0 -0.072002493 0.10249092 -0.99212462 0.0078399722
0.12255454 0.088732481 1.230926 0 -0.029701179 0.077779636 -0.99652803 0.0048777075
0.12359682 0.086018562 1.2349522 0 0.013596674 0.065601029 -0.99775332 0.0031158512
0.12518734 0.083469927 1.2386265 0 0.031225063 0.066852704 -0.99727416 0.0030649942
0.12613893 0.08178854 1.2410676 0 0.03939838 0.066999406 -0.99697483 0.002976608
0.13682851 0.063511372 1.2675426 0 -0.60278523 0.012048738 -0.79781252 0.072396763
0.13735718 0.062577307 1.2688987 0 -0.66503882 0.016147193 -0.74663419 0.066009328
0.0071729049 0.29935426 0.9189142 0 0.88319725 0.0026684804 -0.46899411 0.037057903
0.0074635372 0.30124938 0.92148483 0 0.81329709 0.0081049772 -0.58179224 0.051644612
0.046532072 0.2291649 1.0264401 0 0.029894417 0.18768106 -0.98177499 0.017510761
0.047060743 0.22823077 1.0277963 0 0.043854512 0.18398279 -0.98195064 0.017445438
0.079892658 0.17487782 1.1085019 0 -0.016693322 0.14875601 -0.98873299 0.0069812201
0.090489261 0.15615439 1.135685 0 0.019817121 0.15437804 -0.98781312 0.0077636312
0.12280889 0.09904784 1.2185935 0 -0.11813859 0.14511605 -0.98233628 0.010282372
0.12428541 0.094070017 1.222348 0 -0.11335095 0.10955022 -0.98749697 0.010467204
0.12561366 0.092104733 1.2251635 0 -0.091426231 0.099244855 -0.99085402 0.011282132
0.1258319 0.08904773 1.2298656 0 -0.043239288 0.072884768 -0.99640262 0.0079727108
0.12688923 0.087179482 1.2325778 0 -0.009767428 0.0515939 -0.99862039 0.0053978125
0.13040143 0.084829569 1.237462 0 0.02796641 0.039381538 -0.99883282 0.0025976365
0.13152674 0.082841218 1.2403488 0 0.040609222 0.041176122 -0.9983263 0.0015848563
0.13340549 0.080324411 1.2457767 0 0.046553802 0.037852976 -0.99819833 0.0010506681
0.13460757 0.07659477 1.2476435 0 0.018039156 0.030929742 -0.99935877 0.0022708233
0.13658448 0.074707389 1.2539315 0 -0.089756317 0.014786384 -0.99585396 0.020444753
0.13817397 0.071898878 1.258009 0 -0.20099913 -0.0031526827 -0.97958636 0.035162151
0.14128384 0.06560111 1.2653784 0 -0.58640206 0.010525131 -0.80995178 0.067805015
0.14213201 0.061690509 1.2657342 0 -0.6939401 0.014756151 -0.71988147 0.070715427
0.011256061 0.29974699 0.917593 0 0.87672204 0.0020843532 -0.48099285 0.033058114
0.012413032 0.30056471 0.92057121 0 0.80166751 0.0081277918 -0.5977149 0.046667259
0.13021785 0.095658541 1.2207035 0 -0.1497118 0.13379444 -0.97963536 0.013033135
0.1332642 0.090467095 1.2282217 0 -0.076368637 0.084950745 -0.99345416 0.012363305
0.13508263 0.087967634 1.2299267 0 -0.050880652 0.075147703 -0.99587345 0.010191103
0.13515338 0.08641535 1.2360275 0 0.01539134 0.043199915 -0.99894786 0.0036630586
0.13762733 0.0825665 1.2397108 0 0.043940563 0.032672547 -0.99849975 0.0014781429
0.13847286 0.079305887 1.2427657 0 0.042369399 0.026224298 -0.99875778 0.0020022402
0.13992186 0.077989817 1.2482599 0 0.010586793 0.023946099 -0.99965721 0.0026143517
0.14151135 0.075181305 1.2523375 0 -0.098374866 0.013090312 -0.9950633 0.018130278
0.14677685 0.06486237 1.2637126 0 -0.61673754 0.015652679 -0.78701323 0.064663708
0.14614727 0.061403692 1.2636254 0 -0.74082553 0.016225239 -0.67150152 0.07005357
0.017824251 0.30126107 0.91965967 0 0.77811486 0.013561916 -0.62797558 0.050839778
0.13266262 0.099995732 1.2154052 0 -0.15937988 0.15023936 -0.97571832 0.012755107
0.13547868 0.094900489 1.219108 0 -0.15663545 0.13038567 -0.97901219 0.013005232
0.13729212 0.089559138 1.2270737 0 -0.091613911 0.099223398 -0.99083883 0.013259298
0.13806932 0.087270021 1.2304876 0 -0.041018996 0.068462394 -0.99681008 0.0091753602
0.14021033 0.085013509 1.2336129 0 -0.01390797 0.048898041 -0.99870694 0.0072173811
0.14189321 0.082548797 1.237141 0 0.023305601 0.032151539 -0.99921125 0.0029581808
0.14273283 0.080120265 1.2407601 0 0.035431325 0.027762176 -0.99898642 0.0019988306
0.14484872 0.078463733 1.2466657 0 0.016269188 0.018744772 -0.9996919 0.0026107584
0.14616668 0.075752556 1.2506397 0 -0.06881804 0.023574827 -0.99735063 0.015862936
0.15131229 0.065397143 1.2620925 0 -0.60208762 0.031796064 -0.79779667 0.066465199
0.15246549 0.06227082 1.2625687 0 -0.7053932 0.067590669 -0.70558625 0.060775213
0.022688914 0.30084676 0.9138937 0 0.90275717 -0.015173445 -0.42988288 0.029227864
0.022074807 0.30027193 0.91628206 0 0.8461588 -0.0066604577 -0.53288925 0.040338907
0.13917899 0.097661138 1.2178885 0 -0.16455473 0.11151066 -0.98004442 0.014298489
0.14137271 0.094154239 1.2192372 0 -0.16834125 0.09312506 -0.98132002 0.015330365
0.14233044 0.091831684 1.2245245 0 -0.14848286 0.090601273 -0.98475593 0.016879994
0.14308926 0.088392377 1.2297249 0 -0.064285539 0.074948557 -0.99511307 0.012520344
0.14348766 0.085328758 1.2325524 0 -0.029536115 0.052329887 -0.99819297 0.0090292851
0.14549652 0.083305776 1.2353387 0 0.010069244 0.03939946 -0.99917281 0.0038065684
0.14716214 0.081387103 1.2398764 0 0.04079403 0.023433151 -0.99889272 0.0021053203
0.14977559 0.078937709 1.2450716 0 0.022595411 0.036974881 -0.99906069 0.0049786461
0.15129885 0.076246202 1.2489791 0 -0.060026553 0.053613897 -0.9967559 0.018787598
0.15605119 0.067206442 1.2603135 0 -0.54939926 0.093298212 -0.83033484 0.056334946
0.15715587 0.062981308 1.2620389 0 -0.69942456 0.087802805 -0.70929253 0.054842576
0.025138814 0.30108237 0.91310108 0 0.92915869 -0.0075586336 -0.36960387 0.025445187
0.027299013 0.30030853 0.91392428 0 0.9057166 -0.011568383 -0.42372581 0.031920694
0.1444914 0.095767438 1.2161918 0 -0.17675465 0.078243405 -0.98114002 0.015916074
0.1450069 0.094093323 1.2186975 0 -0.17622849 0.080907315 -0.9810186 0.017429233
0.14754441 0.091136277 1.2228401 0 -0.15517734 0.079441711 -0.98468727 0.01552274
0.15088807 0.087518036 1.2278671 0 -0.1007225 0.057342518 -0.99326068 0.01534376
0.15042299 0.085897386 1.2304611 0 -0.048964668 0.041884996 -0.99792188 0.010905649
0.15083539 0.084558129 1.2324659 0 -0.018103601 0.035579413 -0.99920285 0.0085717048
0.15311296 0.082220137 1.2393999 0 0.053849094 0.040937923 -0.99770957 0.003108413
0.16087045 0.067670047 1.2587543 0 -0.59649616 0.11113615 -0.79488432 0.058161668
0.16206379 0.063453496 1.2604511 0 -0.70105159 0.10824627 -0.7048471 0.05422201
0.030855242 0.30163229 0.91125143 0 0.93171859 -0.0058911541 -0.36313328 0.030416174
0.031382162 0.30070126 0.91260308 0 0.92145592 -0.0054533496 -0.38844469 0.036377784
0.15327136 0.091119647 1.2255733 0 -0.14160833 0.08115869 -0.98659027 0.016059952
0.15803984 0.082694054 1.2378058 0 0.06763576 0.05012767 -0.99645001 0.0044915336
0.16632475 0.066348732 1.2579986 0 -0.6039595 0.11611962 -0.78851068 0.062178962
0.16684133 0.06415844 1.2585245 0 -0.6594196 0.12730159 -0.7409184 0.062054433
0.035465341 0.30109406 0.91128194 0 0.9350549 -0.039273039 -0.35232076 0.032543506
0.16137719 0.085976481 1.2321341 0 -0.0029497843 0.069807298 -0.99755615 0.009573319
0.1629667 0.08316797 1.2362115 0 0.069278337 0.066905856 -0.99535125 0.0059743584
0.16299379 0.078340352 1.2399859 0 0.048494495 0.07280387 -0.99616659 0.0069675203
0.17136474 0.064108431 1.2585081 0 -0.71092069 0.11904535 -0.6931234 0.058340404
0.040465284 0.30204093 0.91033149 0 0.94149727 -0.045966618 -0.3338711 0.035309315
0.16153561 0.094875991 1.2183075 0 -0.18510972 0.070277959 -0.98020172 0.016018702
0.1628875 0.087687314 1.2255117 0 -0.08986631 0.084364623 -0.99237424 0.012940736
0.16630408 0.086450398 1.23054 0 0.0012719954 0.095284469 -0.99544924 0.010491307
0.16789356 0.083641946 1.2346175 0 0.082536139 0.096201316 -0.991934 0.0065091001
0.17609315 0.063922405 1.257833 0 -0.75880533 0.089255519 -0.64517277 0.058695123
0.17794344 0.061517119 1.2579037 0 -0.79866493 0.10702995 -0.5921815 0.05528786
0.043631662 0.30187953 0.90863955 0 0.95563978 -0.041539643 -0.29159409 0.033898387
0.16568887 0.091896653 1.2184963 0 -0.15273544 0.085680917 -0.98454595 0.013673586
0.16728993 0.089940071 1.221251 0 -0.12280761 0.095673569 -0.98780811 0.012604082
0.16797975 0.087848902 1.2243731 0 -0.070439547 0.10149325 -0.99233937 0.011735114
0.18075585 0.065274477 1.2571472 0 -0.72628611 0.10442698 -0.67941403 0.05474877
0.18120998 0.061831415 1.2568468 0 -0.80766141 0.10182339 -0.58078825 0.056795675
0.17055222 0.08940959 1.2215044 0 -0.10000007 0.10923283 -0.98897332 0.011872579
0.18352264 0.071325362 1.2509887 0 -0.44942161 0.13957785 -0.88234812 0.068531632
0.1856719 0.06574738 1.2555566 0 -0.74657774 0.10766049 -0.65652943 0.059401557
0.18664719 0.061961651 1.2556963 0 -0.83065546 0.12392201 -0.54282123 0.050029296
0.19058792 0.066220224 1.2539659 0 -0.75561333 0.090476036 -0.64873922 0.056944408
0.19073299 0.062501967 1.254146 0 -0.83882391 0.11323466 -0.53249633 0.04126263
0.05879125 0.30520177 0.90640414 0 0.93367952 0.0033319423 -0.35809422 0.051169354
0.19550397 0.066693127 1.2523751 0 -0.75196892 0.092506811 -0.65267545 0.056653671
0.19590935 0.063245356 1.2520906 0 -0.85716128 0.091868296 -0.50678861 0.042092759
0.19878131 0.067008317 1.2513148 0 -0.77297127 0.062816374 -0.63132364 0.051131792
0.20094377 0.064399362 1.2512764 0 -0.85152543 0.068435319 -0.5198279 0.037729476
0.20608775 0.064635456 1.2503837 0 -0.85649467 0.056229156 -0.51308393 0.032845765
0.075201958 0.30538237 0.8990919 0 0.95046359 0.050868735 -0.30664533 0.026369704
0.18219531 0.11956745 1.1764193 0 0.053500026 -0.052328628 -0.99719578 0.018836651
0.21215509 0.06780231 1.247751 0 -0.80869466 0.062300358 -0.58492017 0.048056766
0.21109039 0.065219402 1.2491617 0 -0.87135237 0.046774708 -0.48842311 0.035527859
0.078746088 0.30810624 0.89842021 0 0.94769615 0.051140007 -0.31505036 0.029239146
0.15533237 0.17621171 1.0932757 0 -0.006230046 0.0047236267 -0.99996942 0.018901654
0.15692186 0.1734032 1.0973531 0 -0.0081076575 0.0017300175 -0.99996561 0.019080594
0.17652556 0.13876486 1.1476419 0 0.014398508 0.034787826 -0.999291 0.021502066
0.17811507 0.13595635 1.1517193 0 0.020984683 0.028935615 -0.99936098 0.019708326
0.18700334 0.1193006 1.1741413 0 0.049397308 0.030112617 -0.99832517 0.022543624
0.21554872 0.068522811 1.2460421 0 -0.78788346 0.067721285 -0.61208946 0.051599856
0.21506716 0.065099597 1.2472639 0 -0.87816495 0.057855487 -0.47484639 0.036932148
0.084481463 0.30865794 0.89656442 0 0.95175827 0.032574855 -0.30511487 0.031945571
0.21926482 0.068978667 1.244687 0 -0.76906544 0.060309466 -0.63631845 0.056174602
0.21865919 0.065041006 1.2453383 0 -0.88577914 0.053357631 -0.46102953 0.03910999
0.087758824 0.30897325 0.895504 0 0.95471197 0.012275735 -0.29727814 0.029526308
0.18127993 0.14067489 1.1401447 0 -0.016947256 0.13612452 -0.99054676 0.026356049
0.22336152 0.069372833 1.2433615 0 -0.77458078 0.042363614 -0.63105464 0.052921198
0.22380662 0.065683365 1.2434444 0 -0.87119657 0.055438656 -0.48779413 0.042378839
0.093186922 0.307392 0.89367306 0 0.97328681 -0.089294873 -0.21151637 0.024532007
0.18783465 0.14130545 1.1380239 0 -0.016813947 0.2396863 -0.97070479 0.018391155
0.22781944 0.069637477 1.2421736 0 -0.78343588 0.062805332 -0.6182909 0.054455109
0.2282981 0.066115439 1.2419913 0 -0.86384511 0.059073411 -0.50028193 0.041439954
0.096635498 0.30759948 0.89237922 0 0.98170954 -0.081856966 -0.17188901 0.017445657
0.2344306 0.067143321 1.2430344 0 -0.85563815 0.057026725 -0.51442331 0.043491982
0.23942971 0.066962123 1.2415168 0 -0.88501722 0.075186461 -0.45944703 0.04257606
0.24400306 0.068021774 1.2397711 0 -0.87923187 0.092104197 -0.46740574 0.049613196
0.24924554 0.06790638 1.2383407 0 -0.9073832 0.071099311 -0.41424704 0.044697903
0.11928879 0.3081755 0.88568163 0 0.99596322 -0.018734707 -0.087785348 0.013021258
0.2537308 0.067590833 1.2366576 0 -0.92540687 0.059703968 -0.37424269 0.040732484
0.12255533 0.30848974 0.88462472 0 0.99478352 -0.012791309 -0.10120358 0.012071655
