# .PCD v0.7 - Point Cloud Data file format
VERSION 0.7
FIELDS x y z rgb normal_x normal_y normal_z curvature
SIZE 4 4 4 4 4 4 4 4
TYPE F F F F F F F F
COUNT 1 1 1 1 1 1 1 1
WIDTH 569
HEIGHT 1
VIEWPOINT 0 0 0 1 0 0 0
POINTS 569
DATA ascii
0.18211246 0.061297536 1.216166 0 -0.99719077 0.046120822 -0.05902034 0.0023013004
0.037470751 0.28585565 0.84828293 0 0.99036056 -0.044222366 -0.13126446 0.0051703611
0.037881017 0.28632969 0.85006034 0 0.99039531 -0.034489647 -0.13389412 0.0061606765
0.18627068 0.060189426 1.2147734 0 -0.99733686 0.051962599 -0.051176291 0.0022731556
0.18797666 0.061817706 1.2158195 0 -0.99710894 0.057084333 -0.050151769 0.0023292722
0.044554994 0.28704953 0.84964234 0 0.99035037 -0.039881099 -0.13272384 0.0056900755
0.1909112 0.060855985 1.2132998 0 -0.99755436 0.056886099 -0.04061076 0.0022086226
0.19326536 0.06182009 1.2141068 0 -0.99774349 0.054718457 -0.038908333 0.0022773463
0.050677851 0.28508681 0.84855378 0 0.9915067 -0.05045912 -0.11986798 0.0077606137
0.19748691 0.062278032 1.2130148 0 -0.99788398 0.051879235 -0.039193243 0.0021831929
0.052843705 0.2873494 0.84850192 0 0.9838931 -0.056132812 -0.16971575 0.0083616404
0.20129105 0.063256562 1.210042 0 -0.99766129 0.054813929 -0.040833455 0.0022074883
0.058828659 0.28685004 0.84497315 0 0.98734516 -0.067200333 -0.14364432 0.012202739
0.20560624 0.062966824 1.2086332 0 -0.99731982 0.056175247 -0.046877172 0.0023290354
0.2081324 0.064712882 1.2094188 0 -0.99737686 0.037973072 -0.061623327 0.0026521126
0.063174129 0.28986728 0.84270877 0 0.98878014 -0.038006824 -0.14446203 0.013223154
0.21045807 0.065046966 1.2086802 0 -0.99728245 0.031324282 -0.06668184 0.0025324249
0.068094455 0.29016453 0.8416369 0 0.98844737 -0.021337846 -0.15005516 0.013776143
0.216196 0.063599288 1.2067585 0 -0.99743146 0.028525356 -0.065702178 0.0027195355
0.073030494 0.29000205 0.84094328 0 0.98771137 0.0028159672 -0.1562638 0.012340222
0.074927256 0.28903711 0.84397531 0 0.98742312 0.0069174441 -0.15794849 0.012189858
0.077480018 0.28938109 0.83929825 0 0.98937517 0.0012456288 -0.14537959 0.011196427
0.078148186 0.28856802 0.84217024 0 0.98775905 0.0079529323 -0.15578449 0.012675934
0.22626027 0.065535426 1.2066455 0 -0.99668026 0.054740496 -0.060265999 0.0030252407
0.082449734 0.29078668 0.83812326 0 0.98815274 0.0052808882 -0.15338275 0.011339044
0.083617456 0.28863347 0.8400777 0 0.98782563 0.0070905345 -0.15540363 0.012740631
0.23064452 0.066245556 1.2043376 0 -0.99605185 0.063343391 -0.062195554 0.0027567532
0.086416945 0.29306269 0.83634853 0 0.98798168 0.0018662316 -0.15455969 0.011645528
0.23482385 0.066748202 1.2023931 0 -0.99594426 0.067522824 -0.059462056 0.002563074
0.09029305 0.29361939 0.83511764 0 0.99032712 -0.0037338689 -0.13870198 0.0097353375
0.23976195 0.067608833 1.2008319 0 -0.99613845 0.062321186 -0.06184078 0.0021436191
0.096547954 0.29256427 0.83249879 0 0.99112493 -0.011362122 -0.13244714 0.0088521242
0.24457444 0.066786945 1.199235 0 -0.9974525 0.043474231 -0.056555565 0.002409467
0.10039915 0.29376864 0.83148664 0 0.99421328 -0.045420807 -0.097349063 0.0078869015
0.24951692 0.068876028 1.1992601 0 -0.99766511 0.019939732 -0.065320127 0.0024196513
0.10428218 0.29367518 0.83004272 0 0.99291265 -0.070162751 -0.095925361 0.0051017106
0.25416824 0.069544137 1.197783 0 -0.99827522 0.00021290443 -0.05870701 0.0017898276
0.26013127 0.069509923 1.197381 0 -0.99823868 0.0086934706 -0.058684759 0.0023798021
0.11433156 0.29576993 0.82706225 0 0.99573851 -0.047990169 -0.078751653 0.0041216086
0.26335827 0.07040447 1.1943331 0 -0.99832606 0.0064950259 -0.057470627 0.0023621067
0.11951145 0.29627514 0.82711875 0 0.99424565 -0.064266369 -0.085705534 0.0048687519
0.12159967 0.29633486 0.82815933 0 0.99294472 -0.076203607 -0.090850264 0.0056509785
0.26802027 0.071857035 1.1918666 0 -0.99799186 0.020683274 -0.059870541 0.0025738322
0.1231414 0.29460692 0.8270303 0 0.99328935 -0.07099136 -0.0913046 0.0051071248
0.27223837 0.071846306 1.1901934 0 -0.99811178 0.025765236 -0.055758368 0.0024046989
0.27662814 0.071958601 1.1890815 0 -0.99802387 0.033955067 -0.052871149 0.0022092862
0.28292763 0.072541296 1.1885968 0 -0.99756175 0.041036796 -0.056449778 0.0020590886
0.14074148 0.29819375 0.82357228 0 0.99579161 -0.031362902 -0.086112686 0.0069215195
0.28842139 0.072196543 1.186799 0 -0.99718243 0.024154773 -0.071019053 0.0027426942
0.14229192 0.29841644 0.82307994 0 0.99557573 -0.031777795 -0.088425994 0.0063252314
0.29383534 0.072974205 1.1850798 0 -0.99203455 -0.085637935 -0.092377461 0.011513425
0.29191536 0.074075401 1.1872876 0 -0.99588364 -0.036681369 -0.082886867 0.0072996127
0.296929 0.073418558 1.1840973 0 -0.9832871 -0.15602767 -0.093818106 0.015368269
0.29966757 0.075188935 1.1848259 0 -0.97638726 -0.1914113 -0.10014815 0.017864851
0.30388981 0.074418426 1.1818868 0 -0.94975406 -0.28964266 -0.11863562 0.019757839
0.30199322 0.075523019 1.1840873 0 -0.96097565 -0.25703117 -0.10227813 0.020924566
0.30661398 0.076170385 1.1810856 0 -0.91414207 -0.38756284 -0.11890886 0.02118683
0.16394818 0.3005535 0.81588131 0 0.98198491 -0.15919782 -0.10179242 0.013517598
0.30993593 0.080358386 1.174076 0 -0.74803543 -0.63698488 -0.18626106 0.033040091
0.16832469 0.30162644 0.81374735 0 0.95252568 -0.28261459 -0.11324257 0.017712083
0.27669442 0.14091825 1.0765107 0 -0.061010748 -0.98174638 -0.18014364 0.039522484
0.31378525 0.08231169 1.1698575 0 -0.64071041 -0.73860902 -0.20963499 0.030042933
0.31199723 0.081165195 1.1719153 0 -0.6871922 -0.69616407 -0.20765939 0.029927155
0.17283458 0.30220199 0.81282663 0 0.91243088 -0.37792721 -0.15697427 0.018347139
0.25532568 0.1810478 1.0109469 0 0.023211323 -0.98847288 -0.14960808 0.072043009
0.26766509 0.16233414 1.0413386 0 0.06168317 -0.99622029 0.061158068 0.04064801
0.28215048 0.14036596 1.0770158 0 -0.037430122 -0.98329866 -0.1781088 0.040301092
0.28498435 0.13390714 1.0837104 0 0.066305541 -0.96792716 -0.24232338 0.047802243
0.28337392 0.13350403 1.0871124 0 0.079499856 -0.96931469 -0.23261304 0.053191129
0.30692968 0.10062546 1.1377611 0 -0.023784401 -0.97052151 -0.23983796 0.012561796
0.31346577 0.092015982 1.1555815 0 -0.22224294 -0.95403033 -0.20108248 0.016792268
0.31533945 0.088411689 1.1585455 0 -0.33050659 -0.92427909 -0.19098061 0.016983796
0.3170611 0.086340904 1.1628572 0 -0.44040602 -0.87180424 -0.21447596 0.018497802
0.31607783 0.083975494 1.1668944 0 -0.56276327 -0.79908216 -0.21157794 0.020777838
0.17680465 0.30053788 0.81296539 0 0.86059189 -0.48427859 -0.1576573 0.028401745
0.17970808 0.30052006 0.81511426 0 0.82448775 -0.53742081 -0.17719708 0.032709237
0.25818372 0.1802302 1.0091677 0 0.088982247 -0.96482778 -0.24736522 0.084206298
0.2593146 0.17832667 1.0128546 0 0.089133061 -0.96408105 -0.25020608 0.063029595
0.26131546 0.17493898 1.0168123 0 -0.011293737 -0.96741182 -0.25295609 0.049375672
0.26861998 0.1660341 1.0350683 0 0.0016475852 -0.99307251 -0.11749183 0.036895562
0.2687442 0.16347319 1.0373956 0 0.031597633 -0.99926984 -0.021480437 0.039792132
0.27161846 0.16191173 1.0411839 0 0.086002603 -0.99222255 0.089988537 0.041148011
0.273449 0.15851426 1.0441675 0 -0.063569292 0.98643786 -0.15132518 0.036216483
0.2751731 0.15649092 1.0466423 0 0.043211821 -0.99666953 0.069155946 0.03937462
0.28141686 0.14316964 1.0684721 0 -0.14186895 -0.97708768 -0.1586595 0.028865578
0.28370094 0.14058864 1.0765233 0 -0.061103098 -0.98373324 -0.16892418 0.041002952
0.28611517 0.13692731 1.0824696 0 0.047414213 -0.97565478 -0.21412531 0.046770867
0.28968382 0.13191628 1.0866828 0 0.069281854 -0.97645384 -0.20429866 0.046370685
0.29089734 0.13231462 1.0891759 0 0.054328762 -0.97924262 -0.19527499 0.035771936
0.29246455 0.13115907 1.0916413 0 0.063940704 -0.98076886 -0.18440196 0.034268513
0.30891627 0.10234773 1.138628 0 -0.023552248 -0.96380746 -0.26555693 0.009507047
0.31155938 0.10005534 1.142264 0 -0.052755266 -0.97048694 -0.23531258 0.010880841
0.31338558 0.096695185 1.145148 0 -0.064510062 -0.97198129 -0.22603281 0.0095938472
0.31520265 0.09209156 1.1540196 0 -0.21020101 -0.96013623 -0.18426581 0.015762502
0.31597006 0.089483142 1.1557262 0 -0.24469858 -0.95549715 -0.16476594 0.017326841
0.18319897 0.30072957 0.81605637 0 0.73661602 -0.64473039 -0.20425366 0.03969831
0.18632938 0.29984319 0.8172999 0 0.68023974 -0.69971651 -0.21833618 0.031025652
0.26528293 0.17624313 1.0182271 0 -0.044777371 -0.99731928 -0.057872411 0.050489541
0.27571505 0.16170901 1.0417657 0 0.058276027 -0.99755228 0.03864469 0.036982
0.2765446 0.15899247 1.0436487 0 -0.068491057 0.98962355 -0.12630984 0.038910873
0.27890748 0.15658885 1.0473064 0 0.027811246 -0.99824154 0.052348092 0.037681907
0.28075463 0.15435201 1.0507709 0 -0.042716019 -0.99849659 -0.034350112 0.027086142
0.28212351 0.15327722 1.0553939 0 -0.1150886 -0.98085028 -0.15712224 0.027577395
0.19154674 0.29836583 0.81937242 0 0.58330554 -0.78211534 -0.21920368 0.023346333
0.19765739 0.29167265 0.83011174 0 0.33811688 -0.9129191 -0.22859506 0.012275765
0.19846213 0.29045218 0.83209383 0 0.30902764 -0.92175263 -0.23425207 0.012141447
0.19770026 0.29380012 0.82361698 0 0.4319942 -0.88064766 -0.1945269 0.018740976
0.19970888 0.29199457 0.82697445 0 0.34360823 -0.91691643 -0.20297195 0.016566353
0.20149882 0.28908932 0.83023834 0 0.23845631 -0.95289272 -0.18744093 0.015557261
-0.0017295331 0.067245126 1.2350006 0 -0.0017362189 0.99897385 -0.045256827 0.0062995669
-0.049204856 0.14244223 1.1049068 0 -0.0019833765 0.99998862 -0.0043345448 0.0079526352
-0.048154145 0.14192349 1.108623 0 -0.012507517 0.99989522 -0.0072874865 0.0067502139
-0.031708047 0.11590701 1.148001 0 0.016636815 0.99975216 -0.014794135 0.0056583104
-0.023542225 0.10811067 1.1682382 0 -0.0052750357 0.99958795 -0.028215384 0.0044552321
2.7567148e-06 0.0667575 1.2304783 0 0.020047823 0.99970704 -0.013562425 0.0065914579
0.00092034042 0.064408302 1.2339703 0 -0.013010063 0.99966621 -0.022321332 0.0066910787
0.0038239509 0.062020123 1.2355154 0 -0.051344331 0.9986704 -0.0046007317 0.0061939796
0.0041984022 0.059983611 1.2412399 0 -0.12190419 0.99223083 -0.024846395 0.0077700303
0.0074677095 0.057326436 1.2463496 0 -0.22558157 0.97300935 -0.048638739 0.013740822
0.0086672679 0.05499053 1.2503862 0 -0.33771443 0.93976182 -0.052883964 0.020245843
0.01081235 0.053714037 1.2527926 0 -0.40928608 0.90908194 -0.07781335 0.021157319
-0.087764889 0.21141076 0.99627101 0 0.043204568 0.99826288 -0.040057886 0.0092034144
-0.086525589 0.21039426 0.99787802 0 0.039307877 0.99866247 -0.033588499 0.0088803032
-0.084906772 0.20793921 1.0018651 0 0.0095769102 0.99987924 -0.012241076 0.0071263094
-0.074147344 0.1880185 1.0304959 0 0.052324791 0.99614674 -0.070383333 0.0058398815
-0.071891889 0.18806255 1.0361048 0 0.035463069 0.99692041 -0.069943495 0.0055283732
-0.070813969 0.18398339 1.0409014 0 0.01686115 0.99874055 -0.04725492 0.0068904045
-0.069623083 0.18294299 1.0438538 0 0.0062521608 0.99928343 -0.037329499 0.0071089347
-0.067195609 0.1794464 1.0469201 0 0.014312907 0.99965495 -0.022024935 0.0065437108
-0.066045552 0.17753315 1.0493851 0 0.0010680676 0.99993587 -0.011272717 0.0057818978
-0.063143551 0.17335892 1.0620091 0 -0.01707565 0.99985218 0.0020061464 0.0074425358
-0.061953664 0.17155445 1.0649397 0 0.0079724984 0.99996525 0.002427977 0.007785467
-0.05160208 0.1522522 1.0925659 0 0.064306699 0.99777865 -0.017391503 0.0080256984
-0.050513551 0.15127349 1.096724 0 0.052402154 0.99821353 -0.028701568 0.0089050019
-0.049292266 0.14975744 1.1004705 0 0.033424843 0.99865437 -0.039651401 0.0089122932
-0.038441077 0.1348815 1.120645 0 -0.010587618 0.9993633 0.034072548 0.0060209464
-0.038239807 0.13371527 1.1225829 0 -0.0083328467 0.99928415 0.036902428 0.0055923583
-0.036582217 0.13048172 1.1317749 0 0.033430941 0.99838173 0.046002664 0.0064313095
-0.029613838 0.11531401 1.1488329 0 0.0076729232 0.99989057 -0.012649151 0.0055468772
-0.027928576 0.11735785 1.1530887 0 -0.0068554832 0.99958879 -0.027843915 0.0056311996
-0.026846871 0.11571735 1.1557529 0 -0.011892955 0.99966228 -0.02310526 0.0051712999
-0.019982547 0.1032905 1.1682284 0 -0.0025751144 0.99986166 -0.016433319 0.0048138178
-0.018514022 0.1025061 1.1733334 0 0.010309662 0.9998951 -0.010172624 0.0056175883
-0.017022893 0.10007674 1.1766367 0 0.024564583 0.99962425 0.012163286 0.0072365887
-0.015822023 0.098325193 1.1814299 0 0.040572401 0.99870884 0.030569246 0.0070142313
-0.014638931 0.096194804 1.1836052 0 0.042676233 0.99766362 0.053348891 0.0072102719
0.012647703 0.051221251 1.2529221 0 -0.47065318 0.87816793 -0.085479483 0.025619047
0.016441919 0.050926685 1.2562466 0 -0.63962007 0.76323527 -0.091422819 0.027525621
-0.094469309 0.22761953 0.96964073 0 0.090292983 0.99119824 -0.096815132 0.009412488
-0.092587322 0.22519988 0.97354829 0 0.098969243 0.99064302 -0.093976028 0.0088660745
-0.091754898 0.22285718 0.97740775 0 0.10167274 0.98835796 -0.11318643 0.0088543724
-0.090515465 0.22038358 0.98067427 0 0.04445561 0.99252874 -0.11362411 0.0090829628
-0.089661777 0.21739745 0.98508918 0 0.05447555 0.99437445 -0.090839751 0.0099527249
-0.088043779 0.21494365 0.98907423 0 0.050668806 0.99668342 -0.063678041 0.010916719
-0.084837899 0.21232539 0.99408007 0 0.045572795 0.99771053 -0.049967814 0.010093833
-0.083837494 0.21003211 0.99762714 0 0.032003388 0.99923837 -0.022325592 0.0087886192
-0.082370907 0.20694768 0.99942625 0 0.0073860446 0.99993461 0.0087311277 0.0069001871
-0.07779482 0.20000774 1.010697 0 0.019386375 0.99957418 -0.021808442 0.0084907077
-0.077875659 0.19945693 1.0139683 0 0.023785774 0.99953014 -0.019331073 0.0081500411
-0.075214982 0.19635326 1.0175951 0 0.040805139 0.99877268 -0.028072406 0.0080657657
-0.073926687 0.19371092 1.0209452 0 0.052930497 0.99777824 -0.040459383 0.0078663575
-0.071679592 0.19215339 1.0263088 0 0.055910505 0.99707353 -0.05213768 0.0068506966
-0.071745276 0.18924427 1.0299313 0 0.046251338 0.99687403 -0.064054683 0.0064635375
-0.066507727 0.18365091 1.0450311 0 0.023843328 0.99951756 -0.019901888 0.0056626764
-0.065142438 0.18089622 1.0469366 0 0.023426298 0.99945205 -0.023382736 0.005652369
-0.06408073 0.17808294 1.0502651 0 -0.0055752238 0.99984902 -0.016458929 0.0056726607
-0.058935776 0.17216748 1.0636805 0 0.0028056828 0.99999392 0.0020711641 0.0078221317
0.020173967 0.049962342 1.2570539 0 -0.74910951 0.65557951 -0.095133871 0.033313949
0.023461334 0.048150837 1.2587936 0 -0.82053137 0.56401718 -0.09280584 0.030126397
-0.10927567 0.26043046 0.9158287 0 0.41899732 0.90794361 0.0089250542 0.020008992
-0.10879256 0.25858134 0.91953921 0 0.31875783 0.94783401 -0.0020393853 0.016341092
-0.1072171 0.25627953 0.92359829 0 0.17528479 0.98451763 0.00046213178 0.015150624
-0.10678804 0.25406879 0.92629176 0 0.11210535 0.99365133 -0.0094590299 0.011734908
-0.10088263 0.24406272 0.93869102 0 0.1028389 0.99442732 -0.023205027 0.01799118
-0.099536732 0.24202156 0.94200599 0 0.12218634 0.9922269 -0.023586797 0.016662994
-0.0808447 0.2085076 0.99669617 0 0.01929681 0.99981153 0.0021227619 0.0073596616
-0.080037147 0.2072829 0.99868512 0 0.0026758665 0.99992478 0.011968852 0.0068763169
0.026045851 0.048735797 1.2599573 0 -0.86824876 0.48726434 -0.093367763 0.029005807
0.02910348 0.047980189 1.2609875 0 -0.91151452 0.4017449 -0.087990291 0.022246707
-0.11021258 0.26596135 0.90273345 0 0.70290369 0.71019393 -0.039381776 0.035644367
-0.1092861 0.26718581 0.90549171 0 0.68540961 0.7275902 -0.028743468 0.043382697
-0.10933444 0.26310861 0.91134793 0 0.56834042 0.82271111 -0.011644179 0.029790273
-0.10905141 0.26374143 0.91417056 0 0.52574289 0.85059839 -0.0087640919 0.025538465
0.034075372 0.048561931 1.2609317 0 -0.95030236 0.30166775 -0.076954246 0.01649786
-0.10529637 0.26808912 0.90074348 0 0.83445263 0.5491358 -0.046245497 0.038458619
-0.10656254 0.26559186 0.90307128 0 0.73541421 0.67491055 -0.060511924 0.044201307
0.038880609 0.048322499 1.25836 0 -0.9769401 0.19689806 -0.082578816 0.0082518086
0.043017715 0.049256504 1.2568026 0 -0.98680657 0.13447887 -0.09015698 0.0036101101
0.048148379 0.050351143 1.256201 0 -0.99024302 0.10255259 -0.094348706 0.002553643
-0.094155386 0.27553385 0.89327359 0 0.98079461 0.16225436 -0.10823803 0.011454186
0.053062007 0.050933957 1.2557576 0 -0.99201006 0.078699894 -0.098601945 0.0028382218
-0.089578599 0.27420157 0.89124835 0 0.99110007 0.087749146 -0.10010332 0.0081000216
-0.088640124 0.2743057 0.89490587 0 0.99110538 0.093724139 -0.094476968 0.0090311589
0.058064274 0.050983548 1.2537277 0 -0.9929564 0.067947619 -0.097060278 0.0029503172
-0.084406629 0.2741009 0.88971734 0 0.99490815 0.030218994 -0.096148551 0.0053607505
0.062750168 0.051320434 1.2528026 0 -0.9939146 0.058962744 -0.093043648 0.0027661254
0.063020602 0.050910294 1.2534688 0 -0.99408311 0.058638737 -0.091434255 0.0028051706
-0.080858856 0.27475947 0.88834119 0 0.99556822 0.0063757696 -0.093825489 0.0057665179
0.065475784 0.05355233 1.2527591 0 -0.99398106 0.061804138 -0.090454109 0.002747033
0.067660354 0.052040577 1.25252 0 -0.99547929 0.051304795 -0.07993032 0.0029722871
-0.074767649 0.27544373 0.88646591 0 0.99595898 -0.021484245 -0.087201528 0.0078367935
-0.07328023 0.27696103 0.88927621 0 0.99667418 -0.02455698 -0.077701546 0.0084566446
0.074102215 0.053444505 1.2522755 0 -0.99655008 0.043398142 -0.070742965 0.0029189247
-0.070600033 0.27706182 0.88564742 0 0.99644786 -0.0027068076 -0.084168442 0.011164499
0.077786416 0.053726971 1.2495666 0 -0.99802166 0.02038482 -0.059474543 0.0032076221
-0.067057863 0.27920169 0.8850444 0 0.99596775 -0.01541455 -0.088378094 0.011584299
-0.065465048 0.27808356 0.88679439 0 0.99613214 -0.012180896 -0.087019324 0.011365299
0.081478089 0.053778291 1.2465937 0 -0.99905229 0.012533557 -0.041682102 0.0027685051
-0.062400505 0.27906913 0.88360631 0 0.99664438 -0.011935973 -0.080978364 0.013232773
-0.061350152 0.27769786 0.88517141 0 0.9965964 -0.010942749 -0.081706189 0.013673185
0.085710302 0.052778065 1.2446895 0 -0.99913299 0.0081211878 -0.040832892 0.0028229016
0.087971576 0.054494262 1.2455451 0 -0.99927741 0.010956767 -0.036395196 0.0031878368
0.090243645 0.056212068 1.2463976 0 -0.99909401 0.009651904 -0.041448578 0.0036566502
-0.049863309 0.27775824 0.87832952 0 0.99725658 -0.033860531 -0.065824248 0.012695668
-0.048517406 0.27571714 0.88164443 0 0.99725723 -0.033840403 -0.065824181 0.012696336
0.097057767 0.056248367 1.2419078 0 -0.99900144 0.012891985 -0.04277752 0.0029618409
0.094959989 0.056193829 1.244113 0 -0.99908483 0.0086408183 -0.041890152 0.0034009088
-0.049069092 0.28108776 0.87464422 0 0.99745393 -0.034991145 -0.062139086 0.013169409
-0.047361642 0.28030401 0.87734383 0 0.99805516 -0.025119917 -0.057051923 0.01281391
-0.046701163 0.27867812 0.88123065 0 0.99816966 -0.02917264 -0.052974049 0.013266066
0.099907458 0.057104647 1.2402544 0 -0.99865168 0.017815616 -0.048758999 0.0035119664
-0.043169841 0.28187865 0.87676966 0 0.99698585 -0.024389574 -0.073650353 0.012967173
-0.043582588 0.28122681 0.87984532 0 0.99715281 -0.037792053 -0.065253757 0.012545257
0.10331438 0.056450367 1.2391357 0 -0.99810052 0.024950495 -0.056327417 0.0032605864
-0.037389919 0.28040683 0.8755362 0 0.99628079 -0.0091891419 -0.085674435 0.012584525
-0.037092403 0.28085673 0.87736261 0 0.99635029 -0.01088028 -0.084662072 0.013134942
0.11525217 0.05980432 1.2384558 0 -0.99557412 0.037358917 -0.086234793 0.003690182
0.11915977 0.060365617 1.2372149 0 -0.99467534 0.047600172 -0.091406807 0.0037511077
-0.021589041 0.28137273 0.87009907 0 0.99377388 -0.031376474 -0.1069067 0.005481977
-0.021828592 0.2804445 0.87167209 0 0.99392921 -0.030153025 -0.10580871 0.005638232
0.1254119 0.061263621 1.2352295 0 -0.99380302 0.060858697 -0.093014695 0.0033953299
-0.017933384 0.28415203 0.86906707 0 0.99320996 -0.029459767 -0.11254364 0.0062454599
-0.017939001 0.28100324 0.87043691 0 0.99367225 -0.027135154 -0.10899159 0.006412352
0.13220488 0.061341465 1.2345761 0 -0.99083298 0.080012336 -0.1088488 0.0026333795
-0.012351692 0.28705972 0.86767173 0 0.99053192 -0.056256812 -0.12522666 0.0055481791
0.13533095 0.061790526 1.2335835 0 -0.99030799 0.081509501 -0.11245591 0.0021070314
-0.0094208419 0.28407037 0.86594558 0 0.99195999 -0.063958831 -0.10920005 0.0055194651
-0.0084143281 0.28627837 0.8686772 0 0.99222606 -0.06081019 -0.10857954 0.0057254094
0.14002004 0.062464058 1.2320943 0 -0.99031472 0.08492168 -0.10984102 0.001893196
-0.0052527338 0.28371924 0.86491126 0 0.99174124 -0.060304031 -0.11319361 0.0049413056
-0.0042228177 0.28492695 0.86671364 0 0.991804 -0.064290203 -0.11041526 0.0056919488
0.14465088 0.061739862 1.2290463 0 -0.99207926 0.069296375 -0.10477006 0.0023514843
0.0018588826 0.28520256 0.86578375 0 0.99089104 -0.054012243 -0.12335974 0.0062784231
0.14858489 0.062999606 1.2285857 0 -0.9929893 0.056993943 -0.10355624 0.0026052026
0.0072340444 0.28567672 0.86457574 0 0.99274576 -0.031812403 -0.11594745 0.0059617474
0.15291017 0.060643077 1.2263432 0 -0.99500203 0.033807553 -0.093957707 0.0023420712
0.010812365 0.28615797 0.86271346 0 0.9907555 -0.02756281 -0.13283017 0.0055780611
0.15757769 0.06131357 1.2248609 0 -0.99533248 0.028528802 -0.092191771 0.0021423616
0.01666972 0.2863816 0.86136734 0 0.9886083 -0.02250256 -0.14881951 0.0053165518
0.16259839 0.06259042 1.2238975 0 -0.99495256 0.020466156 -0.098237135 0.0017548893
0.02158083 0.28747314 0.85948658 0 0.98910642 -0.023521958 -0.14531085 0.0054576998
0.16862208 0.065654337 1.2225969 0 -0.99612707 0.031126866 -0.082230963 0.0013147865
0.024846569 0.28714895 0.85684979 0 0.988612 -0.021325257 -0.14896812 0.0054219114
0.17267224 0.064399838 1.2204819 0 -0.9964726 0.036591355 -0.075520739 0.0014978889
0.02887208 0.28959876 0.85438895 0 0.9872337 -0.031808641 -0.1560701 0.0060437522
0.030614935 0.28957188 0.85625201 0 0.98838627 -0.028145585 -0.14933334 0.0062132212
0.1781628 0.064748406 1.2201262 0 -0.99590045 0.04971328 -0.07557065 0.0015803565
0.035978928 0.28900486 0.85548723 0 0.98888445 -0.023578184 -0.14680485 0.0069078845
0.18252091 0.065358818 1.2174667 0 -0.99624413 0.055304717 -0.066625699 0.0019977503
0.039941654 0.29080766 0.85433185 0 0.99070489 -0.01187385 -0.13550971 0.0058856467
0.18748611 0.065856397 1.216902 0 -0.99551946 0.069644108 -0.063958324 0.0019804521
0.04488451 0.29108375 0.85262132 0 0.98999798 -0.053081632 -0.13071458 0.0054619364
0.19156659 0.065301895 1.2155643 0 -0.99680686 0.062012006 -0.050304729 0.0022186411
0.1940726 0.067047119 1.2163527 0 -0.99632615 0.062254805 -0.058809463 0.0020124181
0.04959286 0.29246354 0.85255069 0 0.98980397 -0.059615497 -0.12936035 0.0063478141
0.19778994 0.066195846 1.2135879 0 -0.99749631 0.056733131 -0.0422187 0.0023174107
0.19563204 0.067271113 1.2158575 0 -0.99681294 0.059219182 -0.053451709 0.0019895658
0.054872245 0.29154378 0.84912968 0 0.9886654 -0.064585567 -0.13553379 0.0083967587
0.20342922 0.068391085 1.2133813 0 -0.99722862 0.045820192 -0.058614347 0.0023821648
0.059962004 0.29230088 0.84812057 0 0.98760724 -0.061347712 -0.14445889 0.011864556
0.2047912 0.067201495 1.2113645 0 -0.99752533 0.043155082 -0.055505637 0.0025122867
0.20743012 0.069658399 1.2129029 0 -0.99741632 0.030321063 -0.065125495 0.0025346905
0.063441947 0.2939257 0.84708339 0 0.99059463 -0.047651604 -0.12826382 0.012763026
0.06601239 0.292328 0.84891069 0 0.99246174 -0.029777084 -0.11888245 0.013923631
0.21185586 0.070070684 1.2118717 0 -0.997486 0.024379602 -0.066538431 0.0029172488
0.068400003 0.29271412 0.84547734 0 0.99206001 -0.018726621 -0.12436363 0.012235589
0.06951569 0.29219043 0.84887147 0 0.99384296 -0.020623423 -0.10886183 0.012935043
0.21644911 0.069226801 1.2098638 0 -0.99677819 0.029348811 -0.074645117 0.0025941611
0.072159678 0.29245543 0.84431982 0 0.99218982 1.5937032e-05 -0.12473702 0.012229361
0.072358891 0.29129225 0.84625244 0 0.99282014 -0.0062792148 -0.11945181 0.012462351
0.22114867 0.0701949 1.20943 0 -0.99698991 0.048117541 -0.060793269 0.0030525029
0.22577336 0.070552289 1.2076077 0 -0.9965694 0.059081256 -0.057955328 0.0027672944
0.22809076 0.074216664 1.2056302 0 -0.99622166 0.065972999 -0.056480162 0.0027954839
0.23017848 0.070803463 1.2050507 0 -0.99595642 0.065940604 -0.061013222 0.0026388578
0.087024331 0.29701519 0.84009349 0 0.98577178 0.0089932121 -0.16784859 0.010843035
0.23475423 0.071751177 1.2033901 0 -0.99601465 0.064513579 -0.061585661 0.0025965555
0.091784738 0.29867995 0.8385191 0 0.98303747 0.0037323674 -0.18336672 0.010485486
0.23978075 0.072440565 1.2030196 0 -0.99614251 0.054776732 -0.068553686 0.0027602322
0.096436016 0.29641634 0.83646762 0 0.98887509 -0.0086082611 -0.14849898 0.0084287347
0.24478336 0.07298851 1.2024977 0 -0.99539018 0.042758226 -0.085849144 0.0028124163
0.1010851 0.29805887 0.83531094 0 0.9885962 -0.03213742 -0.14712153 0.0060870908
0.24913184 0.073043287 1.2010949 0 -0.99582881 0.026352037 -0.087352864 0.0026099365
0.10537655 0.29980516 0.8341381 0 0.98812932 -0.050773576 -0.14499147 0.0040751593
0.25424379 0.074807763 1.2000239 0 -0.99642909 0.010422698 -0.083787918 0.0025427451
0.11015681 0.30046064 0.8318913 0 0.99113405 -0.060533937 -0.11827501 0.0044114045
0.25925106 0.073710442 1.1988733 0 -0.99711716 0.01165012 -0.074977338 0.0026089181
0.11510144 0.30137241 0.831285 0 0.99167752 -0.058838587 -0.11451527 0.0060686674
0.26354378 0.074313521 1.1962311 0 -0.99781036 0.01489175 -0.064441219 0.0027285016
0.11927257 0.29989946 0.83017719 0 0.99134624 -0.069523133 -0.11135146 0.0057922853
0.12059118 0.30081683 0.83179283 0 0.99018079 -0.074997976 -0.11797179 0.0063891769
0.2681329 0.077711403 1.1953927 0 -0.9975332 0.018678045 -0.067665309 0.0023434474
0.12527335 0.30084026 0.8300916 0 0.99162889 -0.073044717 -0.10647333 0.0068761259
0.27235955 0.077275097 1.192219 0 -0.9978767 0.027180826 -0.059188869 0.0022620447
0.13096909 0.30255425 0.82678246 0 0.99356306 -0.076963007 -0.083121538 0.0066590915
0.1291921 0.30335051 0.82949007 0 0.99193531 -0.074424006 -0.1025932 0.0075446316
0.27764317 0.077244639 1.1912779 0 -0.99698949 0.033737689 -0.069811821 0.0022825394
0.13490337 0.30506879 0.82617247 0 0.99595141 -0.044311319 -0.078213073 0.0087381303
0.2824797 0.077955067 1.1912773 0 -0.99668455 0.02744385 -0.076594569 0.0023570661
0.13720684 0.30345023 0.82480156 0 0.99569511 -0.04452543 -0.081294239 0.0083359489
0.13935181 0.30480981 0.82626367 0 0.99666667 -0.023475599 -0.07813108 0.0084040705
0.28736261 0.077978551 1.1902113 0 -0.99542773 0.012380937 -0.094712086 0.003297447
0.29204032 0.078650475 1.1887258 0 -0.99242413 -0.071052097 -0.10022964 0.01069646
0.29671684 0.079322219 1.1872407 0 -0.98249561 -0.15366091 -0.10531268 0.016454903
0.30083132 0.081971347 1.187042 0 -0.9612 -0.24843553 -0.11989287 0.019978806
0.30173308 0.079823911 1.1866648 0 -0.95923054 -0.25877336 -0.11363616 0.02078668
0.16158004 0.30321425 0.81941605 0 0.98431534 -0.14081173 -0.10627962 0.011429156
0.30630034 0.081701696 1.1837261 0 -0.9084084 -0.3970806 -0.13084801 0.021380793
0.16402857 0.30451232 0.81835496 0 0.97718042 -0.18156709 -0.11023516 0.01435489
0.30881995 0.088258684 1.1739448 0 -0.67002732 -0.72588462 -0.15541857 0.041048352
0.30928552 0.084925711 1.1762376 0 -0.73333281 -0.65991265 -0.16351831 0.037764862
0.30839866 0.083713651 1.1815892 0 -0.84749585 -0.5084163 -0.15252437 0.03161446
0.16885549 0.30558109 0.81814557 0 0.9369114 -0.31426159 -0.15309036 0.01897727
0.27335948 0.14630628 1.0762031 0 -0.13531765 -0.97257847 -0.18915685 0.034380578
0.27494627 0.1437676 1.0782878 0 -0.090775833 -0.97702891 -0.19280635 0.038325384
0.28127959 0.13717914 1.0882766 0 0.07964202 -0.96946472 -0.23193805 0.053177424
0.31244054 0.08732605 1.1715014 0 -0.60692555 -0.7706182 -0.1943939 0.032294456
0.3109709 0.086526036 1.1747289 0 -0.68172729 -0.70974922 -0.17749357 0.038186528
0.17366973 0.30532658 0.81689966 0 0.87971914 -0.43911591 -0.18240458 0.020004163
0.27974573 0.14898133 1.0764368 0 -0.12485493 -0.9716723 -0.20065953 0.033249732
0.27992699 0.14488745 1.077702 0 -0.085928969 -0.97770524 -0.19159515 0.03737241
0.28152001 0.14198065 1.0802166 0 -0.0038615898 -0.98159319 -0.19094475 0.041176502
0.28513956 0.13907427 1.0848055 0 0.048946254 -0.97823012 -0.20166814 0.046433337
0.28361332 0.13751435 1.0875355 0 0.064334236 -0.97744143 -0.20116988 0.054539349
0.30617309 0.1057961 1.1420438 0 -0.037516158 -0.9646886 -0.26070771 0.010409269
0.30882242 0.10384822 1.1451023 0 -0.035356913 -0.96871823 -0.24563153 0.0093225464
0.31170461 0.099435806 1.1550032 0 -0.14503275 -0.96623492 -0.21296847 0.013602125
0.31313223 0.095761538 1.1571426 0 -0.20491673 -0.95788622 -0.20115456 0.016214488
0.31427044 0.092312098 1.1608801 0 -0.30023786 -0.9324379 -0.20103942 0.019227274
0.31567949 0.091770887 1.1672556 0 -0.41150838 -0.89495152 -0.17240267 0.020350123
0.31509861 0.089042783 1.1688946 0 -0.5162757 -0.83379775 -0.19555226 0.02694612
0.17857355 0.30615789 0.8183834 0 0.82676959 -0.53295767 -0.18002266 0.028362671
0.25874516 0.18657905 1.0098792 0 -0.015948955 -0.99587226 -0.089353725 0.026923317
0.25896966 0.18134588 1.0160236 0 -0.048442386 -0.98560274 -0.16198958 0.041407708
0.26004642 0.17971301 1.0186756 0 -0.015500798 -0.98980314 -0.14159608 0.05008962
0.26351225 0.17896986 1.0231236 0 -0.04478319 -0.99732804 -0.057717416 0.046212766
0.26523948 0.17679822 1.0251094 0 -0.049057748 -0.99722219 -0.056046497 0.042297889
0.26839176 0.17065871 1.0358 0 -0.0054978621 -0.99397725 -0.1094488 0.038049594
0.27204108 0.16668814 1.039566 0 0.020975519 -0.99781078 -0.062718958 0.035803359
0.27071953 0.16460979 1.0451007 0 0.058228992 -0.99757558 0.038110282 0.036975555
0.27267838 0.16282648 1.0489125 0 0.021338923 -0.9974277 -0.068429917 0.035678573
0.27518898 0.15964079 1.0516846 0 -0.0014693444 -0.99893093 -0.046203945 0.033793557
0.27695215 0.15826696 1.0555228 0 -0.10098097 -0.98825014 -0.11473649 0.029258819
0.27969268 0.15661407 1.0597532 0 -0.16230655 -0.97686255 -0.13927013 0.029764352
0.2799066 0.1521765 1.0632646 0 -0.17682917 -0.96995693 -0.16707765 0.025787871
0.28087673 0.15028912 1.0702552 0 -0.16759045 -0.96565628 -0.19854827 0.027564131
0.28168535 0.14964241 1.0738789 0 -0.13876146 -0.96779186 -0.21005757 0.030975522
0.28443313 0.14510363 1.0767139 0 -0.085904427 -0.97772789 -0.19149056 0.037384868
0.28422263 0.14283681 1.0805266 0 -0.0038735769 -0.98159248 -0.19094832 0.041176457
0.28509474 0.14346415 1.0852652 0 0.030301407 -0.98626447 -0.16237055 0.038611546
0.29282731 0.13258123 1.095088 0 0.08680404 -0.97335756 -0.21222658 0.046640549
0.31146011 0.10174018 1.1453062 0 -0.04301849 -0.96473342 -0.25968981 0.0081694406
0.31188491 0.10170829 1.1492312 0 -0.066031896 -0.96966457 -0.23535162 0.0083497008
0.31347758 0.099191904 1.1526724 0 -0.12756456 -0.96549284 -0.22704822 0.012515154
0.31624657 0.09620887 1.1561537 0 -0.19719627 -0.96044433 -0.1966223 0.015681006
0.18332717 0.30469984 0.8191579 0 0.7118538 -0.6727792 -0.20157459 0.034019541
0.18620773 0.3042177 0.81974351 0 0.6983698 -0.68892211 -0.1940773 0.036831848
0.26737612 0.17763746 1.0215871 0 -0.060662445 -0.99736309 -0.039836057 0.044931132
0.26818365 0.17641276 1.0235761 0 -0.049033806 -0.99721336 -0.056224588 0.042308547
0.27139485 0.17202598 1.0384845 0 0.031257723 -0.99945188 -0.010906283 0.039429195
0.27871138 0.15915519 1.0516686 0 -0.018279457 -0.99746901 -0.068713032 0.029098397
0.28003573 0.15860325 1.055094 0 -0.080715343 -0.98969805 -0.11824898 0.025811696
0.28165334 0.1561501 1.059078 0 -0.15471256 -0.97930515 -0.13048154 0.028789241
0.18957968 0.30415118 0.82089674 0 0.61114353 -0.76394719 -0.20709489 0.027003476
0.19314054 0.30273104 0.82393068 0 0.55443358 -0.80770671 -0.20053247 0.023819014
0.19492137 0.29991871 0.82773668 0 0.50472575 -0.84057528 -0.19668545 0.020789564
0.19592392 0.29548132 0.830504 0 0.40838096 -0.88734156 -0.2141261 0.015502321
0.19718149 0.2931335 0.83355832 0 0.31780455 -0.91959864 -0.23095158 0.012613198
0.0012147576 0.066052198 1.2445805 0 -0.098739393 0.99368119 -0.053368971 0.0066106142
-0.048167035 0.15006763 1.107673 0 0.011529739 0.99930644 -0.035408448 0.0090265637
-0.046536997 0.14759552 1.1116878 0 0.0019966916 0.99999142 -0.0036300889 0.0081008999
-0.035992518 0.12986612 1.1405693 0 0.028900893 0.99957818 -0.0028565167 0.006888486
-0.033562243 0.12611371 1.1447146 0 0.022561694 0.9996441 -0.014235112 0.0067603099
-0.032629937 0.12473989 1.148115 0 0.0026678997 0.99943823 -0.033408444 0.0068933945
-0.031640932 0.12271863 1.1514242 0 0.0079012606 0.99889964 -0.046229087 0.0057175667
-0.028063357 0.1195789 1.1571879 0 -0.0044079586 0.99869406 -0.050898831 0.0057838298
-0.024743497 0.11193717 1.1697307 0 -0.0057147457 0.99905443 -0.043099876 0.0044445689
-0.014926568 0.096046746 1.191684 0 0.041974008 0.99876374 0.026630355 0.0059654736
-0.0038135722 0.079193056 1.2190549 0 0.06220644 0.99760234 -0.030330542 0.0045575527
-0.0026100501 0.072165906 1.2307315 0 0.028442929 0.99766326 -0.062120616 0.0064649004
-0.00036672503 0.071864367 1.2330159 0 0.013326133 0.99827302 -0.057213712 0.0063398718
0.0018802881 0.071560204 1.2353044 0 0.004316391 0.99724829 -0.074007846 0.0058890251
0.0046368688 0.065641701 1.2450045 0 -0.1108252 0.99144852 -0.068902597 0.0070713963
0.0073988959 0.062856734 1.2481548 0 -0.20603442 0.97531015 -0.079497956 0.012771727
0.012415662 0.058189452 1.2568867 0 -0.48569599 0.86820483 -0.10158635 0.02524714
-0.085777268 0.21232015 1.0063078 0 0.015744152 0.99864447 -0.049612373 0.008598621
-0.071212679 0.18921167 1.0399845 0 0.031072043 0.99864602 -0.041721091 0.0064863376
-0.069044277 0.1859231 1.0453252 0 0.031076472 0.99939781 -0.015435871 0.0058461605
-0.061997011 0.17523539 1.0626824 0 -0.0089421198 0.99995977 0.00070710439 0.0075609162
-0.061119214 0.17441428 1.0659423 0 0.012893644 0.99989069 0.0072357808 0.0071852361
-0.060333431 0.17237556 1.0697843 0 0.049132667 0.99878305 0.0042850128 0.0064886054
-0.050943539 0.15688533 1.0964684 0 0.055884037 0.99626088 -0.06588795 0.0073068957
-0.04903765 0.1538859 1.0984169 0 0.055397931 0.99723577 -0.049516145 0.007760874
-0.046888322 0.15202314 1.1025643 0 0.037809685 0.99742478 -0.060944185 0.0079478715
-0.045998886 0.14918107 1.1067601 0 0.0022028801 0.99979883 -0.019936424 0.0092151575
-0.045725286 0.14776641 1.1100378 0 -0.00032114293 0.99999863 0.0016335034 0.0087395422
-0.043336734 0.14534903 1.1152039 0 0.0030254479 0.99962074 0.027372386 0.0068606576
-0.037399843 0.13808322 1.1269156 0 0.0024694882 0.99900246 0.044587079 0.0057470077
-0.036816627 0.13546079 1.1312628 0 0.0053719562 0.99964172 0.026222503 0.006630742
-0.035729945 0.13381279 1.1339393 0 0.014911547 0.99968052 0.020409549 0.0070664971
-0.031383201 0.12722063 1.1446451 0 0.017030718 0.99967486 -0.018977152 0.0066205594
-0.029008552 0.12181163 1.1515691 0 0.0065105292 0.99883658 -0.047782458 0.0058147404
-0.027923107 0.12016547 1.1542425 0 -0.0066817035 0.99873519 -0.049832944 0.0057264054
-0.026370287 0.11600292 1.1591423 0 -0.0066131586 0.99951071 -0.030571535 0.0050226557
-0.01574266 0.10299343 1.1820645 0 0.060771883 0.99809301 0.010820732 0.0072727306
0.013473891 0.055576265 1.2572775 0 -0.55434757 0.82451344 -0.1134742 0.028213728
0.015867665 0.056430101 1.2595675 0 -0.62468028 0.77269477 -0.1127711 0.025275707
-0.093058541 0.23170644 0.97309881 0 0.062737055 0.99507529 -0.076741628 0.0096878344
-0.092533484 0.22934908 0.97440362 0 0.095446274 0.9900856 -0.10305601 0.0089774048
-0.089900851 0.22735214 0.98014843 0 0.071069553 0.99064481 -0.11649878 0.0070274207
-0.090001836 0.22524434 0.98498762 0 0.044103261 0.99138004 -0.12337159 0.007678831
-0.089221239 0.22172487 0.98691773 0 0.059247892 0.9909029 -0.1208349 0.0083825532
-0.088070229 0.22101146 0.99192816 0 0.093218111 0.99109429 -0.095091723 0.0093463836
-0.082686245 0.21051353 1.0051913 0 0.0033618601 0.9993661 -0.035440587 0.0081087258
-0.082656398 0.20916784 1.0074428 0 0.0061279698 0.99945819 -0.032339085 0.0072680814
-0.07729508 0.20363796 1.0162915 0 0.022294221 0.99952435 -0.021307886 0.0077044233
-0.075331584 0.20299578 1.0211201 0 0.032412503 0.99920624 -0.023158882 0.0063012228
-0.070730269 0.19108093 1.0368166 0 0.031892169 0.99882913 -0.036376871 0.0061985501
-0.069103956 0.18861455 1.0408221 0 0.028689336 0.99885648 -0.038245272 0.0064027915
-0.067748711 0.1865592 1.0441601 0 0.02341366 0.99952883 -0.019847713 0.0058900816
-0.064706504 0.18557864 1.0494725 0 0.0031513176 0.99965376 -0.026123261 0.00586821
-0.057138771 0.17228502 1.0692019 0 0.048753206 0.99874091 0.011822677 0.0064618648
0.023138367 0.054026723 1.261471 0 -0.80868387 0.5776214 -0.11128329 0.030841278
-0.11168587 0.26619798 0.91416347 0 0.54955679 0.83523816 -0.019094495 0.025783461
-0.11008003 0.26559407 0.91700351 0 0.495502 0.86823577 -0.02538511 0.021583654
-0.10653597 0.25838774 0.92684764 0 0.14230624 0.98981315 0.0043399627 0.011544021
-0.090002432 0.22936189 0.97496819 0 0.079203077 0.99193496 -0.098954245 0.0092002871
0.027692892 0.052218676 1.261806 0 -0.88465536 0.45604441 -0.096996993 0.02332782
0.030006766 0.052883506 1.2631173 0 -0.91017318 0.40266117 -0.097204991 0.023311876
-0.10965741 0.27016091 0.90932226 0 0.65737355 0.75308734 -0.026822751 0.033533055
-0.10963684 0.26829231 0.91049814 0 0.6330536 0.77376324 -0.023098916 0.034658626
0.034125462 0.053940952 1.2623305 0 -0.94632274 0.31093743 -0.088267758 0.017990123
-0.10527007 0.27446896 0.90372157 0 0.84882295 0.52541989 -0.058596618 0.034257285
-0.10656321 0.27143377 0.90500009 0 0.80331171 0.59404927 -0.042376965 0.040687829
0.037656382 0.053669751 1.2601705 0 -0.9701497 0.22984588 -0.077332996 0.01200867
-0.10451415 0.2735281 0.90133476 0 0.88270152 0.46562418 -0.063499637 0.034741975
0.042547159 0.054027319 1.2586094 0 -0.98645818 0.14035963 -0.084849194 0.0052601569
-0.097955465 0.27726281 0.89691764 0 0.9591496 0.26924324 -0.086833775 0.020224882
-0.095606938 0.27675903 0.89914215 0 0.9685114 0.23653804 -0.077688284 0.018580323
0.044925831 0.054694057 1.2563335 0 -0.98966491 0.11161181 -0.09003415 0.0028653422
0.047421776 0.055451035 1.2579968 0 -0.99132192 0.097795144 -0.087846056 0.0029567061
-0.094890028 0.27742392 0.89504516 0 0.98141921 0.16892582 -0.090996638 0.011403617
-0.092847034 0.27615458 0.89733934 0 0.98144943 0.16905233 -0.090434 0.01137296
0.053613089 0.054907799 1.2566081 0 -0.99259633 0.072918817 -0.097136065 0.0032150426
-0.088532269 0.27657408 0.89578378 0 0.99133348 0.093857452 -0.091916911 0.0083157066
0.05738328 0.056181133 1.2558119 0 -0.99247593 0.068972856 -0.10116469 0.0031555337
-0.086256683 0.27705061 0.89402956 0 0.99329305 0.0620883 -0.097539648 0.0065568993
0.062890127 0.05629611 1.2551954 0 -0.99306732 0.067798547 -0.096024133 0.0027771816
0.066918314 0.055153072 1.2538714 0 -0.99398953 0.066362642 -0.08706785 0.0026661442
0.069633335 0.056172073 1.2545587 0 -0.99455768 0.062038325 -0.0837036 0.0025419721
-0.073723659 0.27885091 0.89004958 0 0.99801826 0.015472037 -0.060993209 0.0071767941
0.072860122 0.057154298 1.2520144 0 -0.99556357 0.044832479 -0.082723528 0.0028330137
0.073402837 0.056331217 1.2533511 0 -0.99579507 0.0432298 -0.080767117 0.0028486827
-0.071026653 0.28119183 0.88982552 0 0.99874896 -0.00955607 -0.049083427 0.0090386877
-0.067457125 0.279751 0.8880595 0 0.99839228 -0.001321042 -0.056666106 0.011546602
0.077673018 0.057463109 1.2504761 0 -0.99692464 0.021691827 -0.075303942 0.0032070519
-0.065137014 0.2814343 0.88506174 0 0.99878776 -0.0049926993 -0.048970092 0.012046663
0.082268894 0.058505774 1.2490265 0 -0.99748188 0.013350105 -0.069653802 0.003515979
0.085717879 0.05785346 1.2479014 0 -0.99839377 0.010417313 -0.055689625 0.0032085658
0.087995894 0.059574127 1.2487485 0 -0.99789846 0.016666146 -0.062617585 0.0035892464
0.092072725 0.059586406 1.247438 0 -0.99888784 0.0072063426 -0.046595737 0.0034105822
0.09585847 0.060682833 1.2443342 0 -0.99909031 0.0042172507 -0.042435993 0.0031021184
-0.045845941 0.28165525 0.88320637 0 0.99695027 -0.031565532 -0.071370825 0.013395904
0.10003749 0.061508119 1.2426302 0 -0.99884444 0.012187252 -0.046489794 0.0029535485
-0.042149827 0.2842862 0.87851554 0 0.99566197 -0.03346229 -0.086818822 0.012733135
-0.041607723 0.28346401 0.87985075 0 0.99566197 -0.033461913 -0.086818874 0.012733067
-0.031936899 0.28440315 0.87753326 0 0.99440944 -0.012137746 -0.10489296 0.011768285
0.11548386 0.062129021 1.2384489 0 -0.99633688 0.037976857 -0.076619953 0.0036270898
0.11547488 0.063521266 1.2400222 0 -0.9963764 0.034497503 -0.07774315 0.0036524918
0.11940044 0.062691629 1.237205 0 -0.9958874 0.0456638 -0.078250401 0.0038624336
0.12202413 0.063315213 1.2379107 0 -0.99619842 0.050369035 -0.071074851 0.0032403574
-0.022591352 0.28724706 0.8759551 0 0.99498796 -0.016983008 -0.098541774 0.0060314797
0.12645029 0.063704252 1.2349663 0 -0.99416554 0.065160818 -0.085958868 0.0030733694
0.12454934 0.064060211 1.2371194 0 -0.99605572 0.052257959 -0.071708873 0.0033712704
-0.015840277 0.28772843 0.87365305 0 0.99466926 -0.030419847 -0.098527551 0.0064522722
0.12960975 0.064453781 1.2358103 0 -0.99296856 0.069879919 -0.09555237 0.0029744224
-0.014026269 0.28881425 0.86974263 0 0.99299198 -0.055348583 -0.10441987 0.0066529824
-0.013068408 0.28791404 0.87150216 0 0.99280906 -0.054727059 -0.10646654 0.0064587845
0.13432917 0.064181745 1.2355123 0 -0.9914692 0.076243088 -0.1057158 0.0025111116
-0.0071308464 0.2885657 0.87255621 0 0.99341869 -0.067818806 -0.092303313 0.0057452405
0.14026035 0.065415621 1.2336398 0 -0.99067783 0.08415354 -0.10712421 0.0020004592
-0.00084549934 0.28796917 0.86916709 0 0.98737419 -0.072919749 -0.14062355 0.0056385486
0.14424433 0.065824091 1.2313476 0 -0.99145472 0.074671052 -0.10696644 0.0021734259
0.0017664656 0.28884423 0.86880201 0 0.98864269 -0.064115368 -0.1359223 0.0056111421
0.1489716 0.066966891 1.230371 0 -0.99294937 0.055883843 -0.10453954 0.0023958669
0.0071740523 0.28932095 0.86758721 0 0.99057359 -0.042998847 -0.13005789 0.0059888856
0.15419501 0.066352725 1.229696 0 -0.9942432 0.037633412 -0.10032031 0.0021428624
0.011833437 0.29031509 0.86621404 0 0.99106097 -0.030730247 -0.12982212 0.0057427073
0.15895772 0.067963004 1.2292352 0 -0.99516386 0.035875097 -0.091443002 0.0018210355
0.017047592 0.29089814 0.86522651 0 0.99066395 -0.041533358 -0.12984575 0.0056949966
0.019079477 0.29052645 0.86725426 0 0.99234909 -0.041629929 -0.11623348 0.0061519979
0.16283256 0.0678249 1.227216 0 -0.99589139 0.02981686 -0.085505873 0.0015830304
0.021045372 0.29092544 0.86350656 0 0.98953027 -0.0253415 -0.14208345 0.0059164269
0.020649716 0.29075199 0.86675566 0 0.9912551 -0.030398294 -0.12841049 0.0062609459
0.16783576 0.070140302 1.224905 0 -0.99648607 0.033484813 -0.076774344 0.0012003491
0.02462507 0.29305351 0.86064291 0 0.98808891 -0.019172294 -0.15268494 0.0054556369
0.17282546 0.0693295 1.2232761 0 -0.99603069 0.042401213 -0.078262672 0.0012722169
0.030387133 0.29343015 0.85956848 0 0.99038035 -0.016044701 -0.13743867 0.0058099451
0.17795682 0.069875598 1.2216411 0 -0.99582475 0.050935477 -0.075754076 0.0013445184
0.034850031 0.29317015 0.85966027 0 0.99083263 -0.015718354 -0.13417746 0.0067258026
0.037566766 0.29213673 0.8592298 0 0.99187696 -0.017080639 -0.12604915 0.0065489435
0.18246415 0.07087636 1.2212446 0 -0.99598223 0.06157539 -0.065022245 0.0016951098
0.040398635 0.29200357 0.85923487 0 0.99188817 -0.014555106 -0.12627769 0.0059060035
0.18722183 0.072022855 1.2202595 0 -0.99504131 0.075982116 -0.064182945 0.0019413969
0.045045719 0.2946347 0.85642248 0 0.99022263 -0.048625991 -0.13074669 0.0056582079
0.044616602 0.29314935 0.85699099 0 0.98982543 -0.044943236 -0.13500248 0.0058303084
0.1915251 0.07035166 1.218823 0 -0.99558467 0.067967355 -0.064742349 0.0020773651
0.19404607 0.072101057 1.2196032 0 -0.99562883 0.064932875 -0.067133874 0.0019831904
0.047991082 0.29453409 0.85441208 0 0.99003905 -0.05232456 -0.13070907 0.005869044
0.19718653 0.072552145 1.218606 0 -0.99607575 0.060461707 -0.064633779 0.0021068444
0.054208949 0.29607707 0.85265064 0 0.99082047 -0.062090155 -0.12008168 0.0074483971
0.20032698 0.073003292 1.2176086 0 -0.99658448 0.054301586 -0.062214859 0.0023002198
0.058957495 0.29610932 0.8509295 0 0.99222064 -0.045784999 -0.11576678 0.0090360371
0.06229664 0.29711258 0.85094428 0 0.99633187 -0.023501355 -0.082282789 0.0096874479
0.065192908 0.29662758 0.85153353 0 0.99696875 -0.033227883 -0.070350915 0.0096670492
0.06829989 0.29669446 0.85313451 0 0.99725378 -0.031384114 -0.067081228 0.010090358
0.2147008 0.075969994 1.2115333 0 -0.99773544 0.035640229 -0.057041671 0.0033202488
0.21524414 0.07514596 1.2128714 0 -0.99765003 0.034177773 -0.059382267 0.0033227287
0.22134593 0.076161444 1.2093997 0 -0.99682629 0.055889383 -0.056690019 0.0031399247
0.22073993 0.075935423 1.2111262 0 -0.99709803 0.049817082 -0.057565805 0.0033452981
0.22448519 0.076612353 1.2084026 0 -0.99650508 0.058871843 -0.059259791 0.0029292798
0.22623573 0.076724827 1.2093809 0 -0.99628639 0.064499401 -0.057037193 0.002673775
0.084565677 0.29888767 0.84430468 0 0.98679709 -0.016715303 -0.1610965 0.012242883
0.22972685 0.076138973 1.206189 0 -0.99580395 0.063102856 -0.066275895 0.0027851372
0.088411279 0.30138743 0.84372628 0 0.98720878 -0.0089579411 -0.15918094 0.012368999
0.08613231 0.29911274 0.8438071 0 0.98671895 -0.016502313 -0.16159639 0.01190198
0.092336848 0.30195129 0.84247971 0 0.98579836 -0.0075587472 -0.16776299 0.011890183
0.23984942 0.076393008 1.2049842 0 -0.99541396 0.042549871 -0.085677043 0.0034025183
0.096262418 0.30251515 0.84123307 0 0.98268098 0.010451506 -0.18501039 0.0095189791
0.098665357 0.30091298 0.83982712 0 0.98253667 -0.0054035285 -0.18599048 0.0075613833
0.1009731 0.30319178 0.83973712 0 0.98116267 -0.021628551 -0.19196871 0.0062234104
0.10317953 0.30225825 0.83982933 0 0.98252225 -0.027839901 -0.1840515 0.005976575
0.25057465 0.077033579 1.2030857 0 -0.9952246 0.015299207 -0.096404821 0.0033947066
0.10699597 0.30353326 0.83674937 0 0.98425329 -0.022168903 -0.17536809 0.0050087464
0.10518695 0.3023724 0.83883291 0 0.98164815 -0.024905458 -0.18906792 0.0051225782
0.11100209 0.30408418 0.83486766 0 0.98877925 -0.04717857 -0.14173856 0.0055274125
0.25952807 0.078890979 1.2002616 0 -0.99569589 0.014805518 -0.091490455 0.0029376575
0.11510515 0.30522174 0.8352493 0 0.98752123 -0.050753824 -0.14908335 0.0067618121
0.11746492 0.30361336 0.83385706 0 0.99083865 -0.058597825 -0.12167627 0.006471761
0.26378521 0.080073833 1.198929 0 -0.99566698 0.02165892 -0.090433113 0.0029498856
0.12114042 0.30388981 0.83441269 0 0.99102861 -0.067352943 -0.11543766 0.0077307699
0.26961541 0.080668628 1.1955316 0 -0.99681181 0.02767417 -0.074835166 0.0025084002
0.12585497 0.3058638 0.83334637 0 0.99194521 -0.066014484 -0.10810531 0.0078277383
0.27274865 0.081118703 1.1945367 0 -0.99706453 0.027927063 -0.071290933 0.0022126678
0.13016061 0.30550909 0.83165669 0 0.99340683 -0.064510487 -0.094769828 0.0081891622
0.27901518 0.082018793 1.1925466 0 -0.99685609 0.023931421 -0.075533092 0.002356081
0.13349497 0.30751419 0.82869267 0 0.99510944 -0.054760255 -0.082210504 0.0084542139
0.13626449 0.30631375 0.82788706 0 0.99640781 -0.045648303 -0.071327947 0.0087911254
0.28347385 0.081759274 1.192638 0 -0.9958064 0.015028855 -0.090242751 0.0032577657
0.13783112 0.30653876 0.82738948 0 0.99686486 -0.03887096 -0.068916358 0.0085373903
0.28739047 0.082321823 1.1913943 0 -0.99487585 -0.0025290493 -0.10107226 0.0037493915
0.14542305 0.30672926 0.82648593 0 0.99520373 -0.039262652 -0.089598686 0.0089318091
0.29209036 0.082996905 1.1899018 0 -0.9912712 -0.082215607 -0.10306317 0.011083738
0.14833906 0.30844432 0.82599193 0 0.99422151 -0.045604888 -0.097179316 0.0095796557
0.29679024 0.083671987 1.1884093 0 -0.98030454 -0.15986449 -0.11595836 0.015706223
0.15279061 0.31063491 0.82328176 0 0.99369168 -0.042468682 -0.1037941 0.0099093402
0.3020173 0.084197879 1.1871262 0 -0.94640189 -0.29624221 -0.12870134 0.021949207
0.30581874 0.086423397 1.1846678 0 -0.88198835 -0.44417298 -0.15750207 0.026793711
0.1643378 0.30971456 0.82328355 0 0.96528095 -0.2311184 -0.12172477 0.017760659
0.30926362 0.088163674 1.1799262 0 -0.76953089 -0.61942774 -0.15534306 0.039532967
