# .PCD v0.7 - Point Cloud Data file format
VERSION 0.7
FIELDS x y z rgb normal_x normal_y normal_z curvature
SIZE 4 4 4 4 4 4 4 4
TYPE F F F F F F F F
COUNT 1 1 1 1 1 1 1 1
WIDTH 869
HEIGHT 1
VIEWPOINT 0 0 0 1 0 0 0
POINTS 869
DATA ascii
0.19496202 0.20919277 1.0876201 2.0569349e-38 0 0 0 0
0.20181215 0.2090957 1.0876312 2.0844857e-38 0 0 0 0
0.21507333 0.2076744 1.0891134 1.965063e-38 0 0 0 0
0.2249109 0.20884912 1.0872589 1.6517764e-38 0 0 0 0
0.23375162 0.20878249 1.087096 1.4952257e-38 0 0 0 0
0.24549273 0.2094074 1.0851324 1.6148268e-38 0 0 0 0
0.25548586 0.207607 1.0848385 1.117042e-38 0 0 0 0
0.26451147 0.20463777 1.0833549 1.1173671e-38 0 0 0 0
0.27140522 0.20132773 1.0809397 1.6797254e-38 0 0 0 0
-0.0030131706 0.21037664 1.0805553 1.9375838e-38 0 0 0 0
0.0051735737 0.21069612 1.0807674 1.9008859e-38 0 0 0 0
0.015443637 0.21125038 1.0811245 2.0293843e-38 0 0 0 0
0.025753006 0.21131638 1.081161 2.0292038e-38 0 0 0 0
0.034953315 0.21057136 1.0807055 1.4587769e-38 0 0 0 0
0.042090099 0.2100931 1.080406 1.6800829e-38 0 0 0 0
0.17614628 0.21060821 1.0800066 2.1487704e-38 0 0 0 0
0.18386832 0.21175827 1.080452 2.0844856e-38 0 0 0 0
0.19488777 0.21212646 1.0824296 2.0844856e-38 0 0 0 0
0.20548545 0.21115965 1.0835764 2.0385679e-38 0 0 0 0
0.21618724 0.21064353 1.0842292 1.9466236e-38 0 0 0 0
0.22469124 0.21155098 1.08253 1.5963523e-38 0 0 0 0
0.2363326 0.21171536 1.0821905 1.6333752e-38 0 0 0 0
0.24408937 0.21167579 1.0813441 1.6791839e-38 0 0 0 0
-0.059437905 0.048221409 1.0988489 1.2639844e-38 0 0 0 0
-0.06073039 0.05274868 1.0920684 1.2730966e-38 0 0 0 0
-0.054447651 0.052659988 1.09261 1.6148641e-38 0 0 0 0
-0.04542404 0.055756439 1.0938866 1.8270574e-38 0 0 0 0
-0.039627045 0.057123918 1.0988405 1.513627e-38 0 0 0 0
0.32583344 0.059425306 1.0968072 9.1309883e-39 0 0 0 0
-0.042262021 0.061893873 1.0921288 1.504552e-38 0 0 0 0
-0.039187778 0.065254234 1.0950962 1.1539914e-38 0 0 0 0
0.31666911 0.062298179 1.0960201 1.2359978e-38 0 0 0 0
0.3242335 0.061675377 1.0927044 9.4068605e-39 0 0 0 0
-0.040517788 0.077927768 1.0909975 1.0159134e-38 0 0 0 0
-0.038070846 0.075034566 1.0954701 9.9751025e-39 0 0 0 0
-0.040471468 0.085078828 1.09181 9.8825439e-39 0 0 0 0
-0.039049216 0.084589623 1.0963877 9.9743794e-39 0 0 0 0
-0.041665751 0.095308706 1.0941546 9.6999463e-39 0 0 0 0
-0.042789791 0.1050208 1.0952052 9.9754626e-39 0 0 0 0
-0.043893427 0.11523933 1.0956175 9.9772605e-39 0 0 0 0
-0.04416851 0.12155157 1.0973638 9.7943098e-39 0 0 0 0
-0.047778964 0.13629463 1.0936586 1.1174358e-38 0 0 0 0
-0.0488161 0.14538036 1.093518 1.0531869e-38 0 0 0 0
-0.049048632 0.15438429 1.0956897 1.0715906e-38 0 0 0 0
-0.05028487 0.16435924 1.0958701 1.1360556e-38 0 0 0 0
-0.050361454 0.1757299 1.0965394 1.2281785e-38 0 0 0 0
-0.05108263 0.18443431 1.0932838 1.3112286e-38 0 0 0 0
-0.047513813 0.1859549 1.0976475 1.6708279e-38 0 0 0 0
0.2797482 0.18815979 1.0961963 1.8089063e-38 0 0 0 0
0.28118521 0.18588892 1.0955567 1.9834665e-38 0 0 0 0
-0.046730258 0.19271693 1.0922253 1.8640069e-38 0 0 0 0
-0.034311473 0.19661623 1.0954552 1.919217e-38 0 0 0 0
-0.025512625 0.19746049 1.0967257 1.965099e-38 0 0 0 0
-0.016256357 0.19819406 1.0964955 1.8641155e-38 0 0 0 0
-0.0057472233 0.19886558 1.0973251 1.8549317e-38 0 0 0 0
0.0041730339 0.19982526 1.0980632 1.8825187e-38 0 0 0 0
0.057073053 0.1966203 1.0965707 1.4556446e-38 0 0 0 0
0.063241467 0.19530885 1.0941875 1.3716607e-38 0 0 0 0
0.14832488 0.1991965 1.0963247 2.1671735e-38 0 0 0 0
0.15558463 0.19744806 1.095891 1.9465514e-38 0 0 0 0
0.16529116 0.19816203 1.0951185 1.8362049e-38 0 0 0 0
0.17416079 0.19814345 1.0971489 2.0293843e-38 0 0 0 0
0.26370353 0.19891836 1.0959487 1.0710165e-38 0 0 0 0
0.27508751 0.19368705 1.0922174 1.6980206e-38 0 0 0 0
-0.032081317 0.2002129 1.0907501 1.8916663e-38 0 0 0 0
-0.023397177 0.20112473 1.0910492 1.9467318e-38 0 0 0 0
-0.01574387 0.2014191 1.0915965 1.8457483e-38 0 0 0 0
-0.0048437566 0.20244214 1.0922205 1.8549318e-38 0 0 0 0
0.0054705911 0.20319234 1.09294 1.8732995e-38 0 0 0 0
0.017567419 0.20213252 1.0960855 1.9559519e-38 0 0 0 0
0.024951298 0.20238136 1.0965545 1.9559519e-38 0 0 0 0
0.034387037 0.20311932 1.0947376 1.6981976e-38 0 0 0 0
0.044630129 0.20171368 1.0939286 1.6339133e-38 0 0 0 0
0.054506477 0.20069231 1.0913231 1.613097e-38 0 0 0 0
0.14710104 0.2016179 1.0918624 2.1488063e-38 0 0 0 0
0.15230221 0.20100443 1.0909823 2.066118e-38 0 0 0 0
0.16765238 0.20170353 1.0912242 2.0018336e-38 0 0 0 0
0.17490384 0.20176621 1.0928818 2.0569349e-38 0 0 0 0
0.18354461 0.20378678 1.0926962 2.0753021e-38 0 0 0 0
0.19557227 0.2048979 1.0945524 2.0018696e-38 0 0 0 0
0.20522875 0.20603 1.0927279 2.0293843e-38 0 0 0 0
0.21608299 0.20363119 1.0962439 1.9374762e-38 0 0 0 0
0.22379521 0.20297289 1.0971683 1.7625917e-38 0 0 0 0
0.23521869 0.20431763 1.0948161 1.4675664e-38 0 0 0 0
0.24450903 0.20469649 1.0937449 1.5964612e-38 0 0 0 0
0.2563704 0.20129061 1.0964398 1.1999815e-38 0 0 0 0
0.26437804 0.20063268 1.0913743 1.0802723e-38 0 0 0 0
-0.053370323 0.045220401 1.1027238 1.4026354e-38 0 0 0 0
-0.045255709 0.045675453 1.1048518 1.7351127e-38 0 0 0 0
-0.037264165 0.048207708 1.1084564 1.7351135e-38 0 0 0 0
-0.042355545 0.050612867 1.1008781 1.8454605e-38 0 0 0 0
-0.035565741 0.055457138 1.105014 1.2923932e-38 0 0 0 0
0.3170853 0.059147652 1.104611 1.3744335e-38 0 0 0 0
0.32428399 0.055128373 1.1054189 9.3160984e-39 0 0 0 0
-0.034659721 0.065686546 1.1039977 1.0159138e-38 0 0 0 0
0.31399354 0.062306304 1.1021512 1.6979068e-38 0 0 0 0
-0.034565642 0.074269943 1.1052673 9.5155635e-39 0 0 0 0
-0.035188008 0.082763791 1.106519 1.0066218e-38 0 0 0 0
-0.039324507 0.097145565 1.1018 9.6999449e-39 0 0 0 0
-0.038699992 0.10429053 1.1057056 9.883983e-39 0 0 0 0
-0.041330487 0.11655328 1.1031302 9.9779793e-39 0 0 0 0
-0.038994178 0.11397532 1.1079829 1.0344248e-38 0 0 0 0
-0.041661382 0.1251123 1.1063241 1.0529717e-38 0 0 0 0
-0.044048764 0.13448295 1.1040045 1.1173999e-38 0 0 0 0
-0.045406763 0.14570589 1.104019 1.0808459e-38 0 0 0 0
-0.04611386 0.1542099 1.1049663 1.0809183e-38 0 0 0 0
-0.046057943 0.16401249 1.1072999 1.2095958e-38 0 0 0 0
-0.046698119 0.17452012 1.1044703 1.2559474e-38 0 0 0 0
-0.042969067 0.18466797 1.1034207 1.7629523e-38 0 0 0 0
-0.035466418 0.18821903 1.105695 1.854932e-38 0 0 0 0
-0.026450375 0.18993926 1.1068885 1.9375841e-38 0 0 0 0
-0.016522476 0.18971126 1.1084512 1.9559517e-38 0 0 0 0
-0.0085671078 0.18980007 1.1095042 1.8366008e-38 0 0 0 0
0.062471721 0.18827356 1.1073673 1.3625486e-38 0 0 0 0
0.15686764 0.18914571 1.1099859 2.075302e-38 0 0 0 0
0.16560981 0.1883778 1.1085526 1.707203e-38 0 0 0 0
0.17408448 0.18875085 1.1093184 1.8639723e-38 0 0 0 0
0.27763328 0.18770972 1.1044406 1.4219013e-38 0 0 0 0
0.28280738 0.1829803 1.1072464 1.7629168e-38 0 0 0 0
-0.037858892 0.19113937 1.1007719 1.8549316e-38 0 0 0 0
-0.024838768 0.19245112 1.1031482 1.9100337e-38 0 0 0 0
-0.015413915 0.19304869 1.1037136 1.8457487e-38 0 0 0 0
-0.0050397953 0.19381247 1.1047149 1.8457484e-38 0 0 0 0
0.0073265061 0.19673637 1.1032135 1.900886e-38 0 0 0 0
0.015068065 0.1970022 1.1039997 1.9651353e-38 0 0 0 0
0.024991397 0.19734417 1.1043954 1.9835025e-38 0 0 0 0
0.034606621 0.19729441 1.1038294 1.8271641e-38 0 0 0 0
0.044681586 0.19600958 1.1034632 1.4864356e-38 0 0 0 0
0.05593659 0.19196516 1.1055193 1.483735e-38 0 0 0 0
0.060241506 0.19312544 1.1003096 1.3263893e-38 0 0 0 0
0.14807442 0.197311 1.1013128 2.1671735e-38 0 0 0 0
0.15397298 0.19327477 1.1040406 2.1120361e-38 0 0 0 0
0.16508265 0.19188416 1.1033459 1.7440091e-38 0 0 0 0
0.17600401 0.193569 1.1036489 2.0202007e-38 0 0 0 0
0.18597424 0.1964381 1.1031859 2.0385678e-38 0 0 0 0
0.19495095 0.19773498 1.1043885 1.9467683e-38 0 0 0 0
0.20529906 0.19739035 1.107084 1.9284012e-38 0 0 0 0
0.2153527 0.19787161 1.1065211 1.8916307e-38 0 0 0 0
0.22477341 0.19787593 1.1066782 1.8362049e-38 0 0 0 0
0.23564374 0.19738659 1.1079227 1.4491622e-38 0 0 0 0
0.24499735 0.19873799 1.1053572 1.5413595e-38 0 0 0 0
0.25419188 0.19818398 1.104493 1.5040843e-38 0 0 0 0
0.26500383 0.19416839 1.1067871 1.1076065e-38 0 0 0 0
0.27222255 0.19155863 1.1041939 1.1724689e-38 0 0 0 0
0.20493571 0.20040146 1.1020969 1.9835025e-38 0 0 0 0
0.2131009 0.20070238 1.101518 1.9650993e-38 0 0 0 0
0.22879303 0.20035218 1.1019397 1.6519201e-38 0 0 0 0
0.23522453 0.20004945 1.1024425 1.4582383e-38 0 0 0 0
-0.045714688 0.038902022 1.1148472 1.5507942e-38 0 0 0 0
-0.052592196 0.040736437 1.1106398 1.329094e-38 0 0 0 0
-0.041922245 0.04131449 1.113053 1.7076344e-38 0 0 0 0
-0.037559852 0.042455055 1.1161253 1.7258577e-38 0 0 0 0
0.33471099 0.049826022 1.1159564 8.2097551e-39 0 0 0 0
-0.031194668 0.055309903 1.1147066 1.1354444e-38 0 0 0 0
0.31837893 0.056438852 1.1138027 1.475632e-38 0 0 0 0
0.3256799 0.051052421 1.1149627 8.7629345e-39 0 0 0 0
0.33478829 0.051657487 1.1129115 8.4852602e-39 0 0 0 0
-0.030436035 0.063661113 1.1150835 9.8829111e-39 0 0 0 0
-0.029785197 0.069219269 1.1195425 9.3318953e-39 0 0 0 0
-0.031229077 0.075522728 1.1169217 9.2396954e-39 0 0 0 0
-0.033595808 0.08598461 1.1131082 1.0158049e-38 0 0 0 0
-0.034565344 0.095062464 1.1136686 9.6999449e-39 0 0 0 0
-0.035539072 0.10447945 1.1137521 9.8839816e-39 0 0 0 0
-0.037171334 0.11571487 1.1140697 1.0161294e-38 0 0 0 0
-0.037257638 0.12009505 1.1160195 1.0070897e-38 0 0 0 0
-0.040668122 0.13705839 1.1147355 1.1175074e-38 0 0 0 0
-0.039786935 0.13155441 1.1146792 1.1265841e-38 0 0 0 0
-0.041200183 0.14414415 1.1166722 1.1083963e-38 0 0 0 0
-0.043177061 0.15516071 1.1146467 1.1085416e-38 0 0 0 0
-0.041533917 0.16634119 1.1171169 1.3939145e-38 0 0 0 0
-0.041241519 0.17425495 1.1132797 1.6152947e-38 0 0 0 0
-0.035571612 0.17916656 1.1146768 1.8181975e-38 0 0 0 0
-0.034232941 0.18174353 1.1136401 1.8273808e-38 0 0 0 0
-0.024075391 0.18187901 1.1172886 1.8365647e-38 0 0 0 0
-0.017275937 0.18386948 1.1168611 1.8732635e-38 0 0 0 0
-0.0054843025 0.18753442 1.1137606 1.8273811e-38 0 0 0 0
0.0052914023 0.18906106 1.1145856 1.8641157e-38 0 0 0 0
0.01460941 0.18981676 1.1148678 1.9100338e-38 0 0 0 0
0.03462318 0.18992342 1.1149684 2.0018332e-38 0 0 0 0
0.046244152 0.18866752 1.1151552 1.541427e-38 0 0 0 0
0.054721128 0.1877895 1.1142582 1.4653308e-38 0 0 0 0
0.063686974 0.1846938 1.113022 1.3624766e-38 0 0 0 0
0.15776916 0.18659347 1.1151112 2.0569708e-38 0 0 0 0
0.16479288 0.18509082 1.1134917 1.8451006e-38 0 0 0 0
0.17584498 0.18436155 1.1161685 1.8638644e-38 0 0 0 0
0.18504888 0.18698022 1.116053 1.9559517e-38 0 0 0 0
0.19023257 0.18826436 1.1160897 2.038604e-38 0 0 0 0
0.20603569 0.18966563 1.1191772 1.9375848e-38 0 0 0 0
0.26647875 0.18984364 1.1150596 1.098279e-38 0 0 0 0
0.27422574 0.18658802 1.114313 1.0986044e-38 0 0 0 0
0.28201801 0.18152678 1.1155831 1.4315529e-38 0 0 0 0
0.0085849361 0.19092128 1.1123667 1.8916665e-38 0 0 0 0
0.013837844 0.19126014 1.1126076 1.9100697e-38 0 0 0 0
0.024274556 0.191578 1.1128535 1.9835024e-38 0 0 0 0
0.034932815 0.19133648 1.1126809 1.9834297e-38 0 0 0 0
0.044631656 0.1904103 1.1127455 1.4588473e-38 0 0 0 0
0.18625651 0.19053248 1.1115117 1.9834667e-38 0 0 0 0
0.19491342 0.19101465 1.1137857 1.9375848e-38 0 0 0 0
0.20478986 0.19271398 1.1144193 1.910034e-38 0 0 0 0
0.214564 0.19165996 1.1170852 1.9099261e-38 0 0 0 0
0.22554237 0.19188948 1.1172416 1.8546444e-38 0 0 0 0
0.2345518 0.19248325 1.1168542 1.6148627e-38 0 0 0 0
0.24459234 0.19260135 1.1172838 1.4767504e-38 0 0 0 0
0.25395209 0.19213831 1.11707 1.5501825e-38 0 0 0 0
0.26403642 0.19142073 1.1133225 1.2181687e-38 0 0 0 0
-0.050730545 0.035647042 1.1204675 1.2913195e-38 0 0 0 0
-0.046050131 0.033363998 1.125778 1.4025278e-38 0 0 0 0
-0.037298512 0.03737973 1.123804 1.8087256e-38 0 0 0 0
-0.03266342 0.041662555 1.1232555 1.6798676e-38 0 0 0 0
-0.029953158 0.045323774 1.1241369 1.3199096e-38 0 0 0 0
0.33004728 0.047149576 1.1223845 7.9349773e-39 0 0 0 0
-0.027858956 0.054482289 1.1256864 1.0986023e-38 0 0 0 0
0.32271144 0.051611505 1.1242906 1.0973097e-38 0 0 0 0
-0.028361192 0.065227449 1.1237769 9.6074032e-39 0 0 0 0
-0.029221823 0.074937202 1.1241111 9.2389752e-39 0 0 0 0
-0.030715523 0.085107625 1.1225265 9.974378e-39 0 0 0 0
-0.029358931 0.084761523 1.1271181 9.882188e-39 0 0 0 0
-0.031463955 0.094582245 1.1224266 9.6073934e-39 0 0 0 0
-0.031638741 0.10494306 1.1247394 9.8829069e-39 0 0 0 0
-0.034005791 0.1147992 1.1221664 1.0161292e-38 0 0 0 0
-0.036182236 0.12551725 1.1227503 1.0714107e-38 0 0 0 0
-0.037888076 0.1356305 1.1235174 1.1175439e-38 0 0 0 0
-0.039250176 0.14450012 1.1237296 1.1176878e-38 0 0 0 0
-0.040282447 0.1555599 1.1236665 1.1821895e-38 0 0 0 0
-0.03795547 0.16511993 1.1239513 1.6058223e-38 0 0 0 0
-0.029419599 0.16961701 1.129214 1.8549677e-38 0 0 0 0
-0.034500819 0.17363256 1.1212004 1.8364929e-38 0 0 0 0
-0.025685314 0.17729795 1.1228548 1.8549314e-38 0 0 0 0
-0.016657308 0.17895612 1.1238613 1.8457484e-38 0 0 0 0
-0.0080043692 0.17860448 1.1271501 1.809014e-38 0 0 0 0
0.065234095 0.17784356 1.1261958 1.5734114e-38 0 0 0 0
0.16515911 0.1787488 1.1278293 1.928184e-38 0 0 0 0
0.17474778 0.17825791 1.125868 1.6704328e-38 0 0 0 0
0.18330415 0.17899145 1.1267502 1.8456048e-38 0 0 0 0
0.27813351 0.17973031 1.1272373 1.0612592e-38 0 0 0 0
0.28431857 0.17808995 1.1242355 1.4583488e-38 0 0 0 0
-0.013087643 0.18185443 1.1207554 1.9835017e-38 0 0 0 0
-0.0046017109 0.18240865 1.1219493 1.8273811e-38 0 0 0 0
0.0054179942 0.18349858 1.123104 1.8641157e-38 0 0 0 0
0.014842582 0.1841954 1.1233282 1.8916666e-38 0 0 0 0
0.024890129 0.18434787 1.1232368 1.8916669e-38 0 0 0 0
0.034991279 0.18271908 1.1258134 1.9192175e-38 0 0 0 0
0.044349 0.18467891 1.122149 1.679722e-38 0 0 0 0
0.054543678 0.18300503 1.1227746 1.3643472e-38 0 0 0 0
0.06317535 0.18058987 1.122347 1.3716609e-38 0 0 0 0
0.15889809 0.18366531 1.1207759 1.9835381e-38 0 0 0 0
0.16511527 0.18139368 1.1209072 1.946335e-38 0 0 0 0
0.17381176 0.18069403 1.1210351 1.7164586e-38 0 0 0 0
0.18558003 0.18215451 1.1223514 1.8916665e-38 0 0 0 0
0.19513728 0.18530598 1.1218045 1.9284009e-38 0 0 0 0
0.20464756 0.1863282 1.1235683 1.8915949e-38 0 0 0 0
0.21479623 0.1875256 1.1237705 1.8548245e-38 0 0 0 0
0.22521202 0.18765007 1.124491 1.7809238e-38 0 0 0 0
0.23515449 0.18789487 1.1250484 1.6793276e-38 0 0 0 0
0.24469276 0.18856762 1.1244414 1.412213e-38 0 0 0 0
0.25542778 0.1887933 1.1227888 1.4764972e-38 0 0 0 0
0.26500121 0.18593793 1.1239275 1.1811456e-38 0 0 0 0
0.27485207 0.18270087 1.1230953 9.6952996e-39 0 0 0 0
0.28204331 0.18008527 1.1203823 1.3479653e-38 0 0 0 0
-0.045751695 0.028137997 1.1372354 1.2460118e-38 0 0 0 0
-0.036178038 0.028661145 1.1363622 1.6615011e-38 0 0 0 0
-0.028792623 0.029988131 1.1391544 1.7444411e-38 0 0 0 0
-0.043608557 0.030156557 1.1323017 1.3658647e-38 0 0 0 0
-0.034261793 0.032415912 1.1325706 1.7719193e-38 0 0 0 0
-0.02767336 0.035525791 1.1354023 1.6060392e-38 0 0 0 0
-0.025886036 0.044154305 1.1344042 1.1358054e-38 0 0 0 0
0.32790923 0.044391494 1.1368793 8.3037598e-39 0 0 0 0
0.33160135 0.040090762 1.1343513 8.3012361e-39 0 0 0 0
-0.025012698 0.055765353 1.1341605 1.0250616e-38 0 0 0 0
0.32480165 0.051994987 1.1363448 1.3096451e-38 0 0 0 0
-0.026086235 0.064055778 1.132809 9.6074032e-39 0 0 0 0
-0.026985735 0.073702931 1.1327885 9.2389766e-39 0 0 0 0
-0.027608076 0.085394062 1.1327829 9.69851e-39 0 0 0 0
-0.028061436 0.09816654 1.1343207 9.790707e-39 0 0 0 0
-0.028562516 0.10396773 1.1345832 9.8825467e-39 0 0 0 0
-0.030173669 0.11502798 1.1339766 9.7939454e-39 0 0 0 0
-0.03165061 0.12325127 1.1342496 1.0621912e-38 0 0 0 0
-0.034434039 0.1363744 1.1349828 1.1360191e-38 0 0 0 0
-0.034966297 0.14546253 1.1356951 1.1545304e-38 0 0 0 0
-0.03419067 0.15501523 1.1352334 1.3665088e-38 0 0 0 0
-0.032038357 0.16405135 1.1325395 1.863899e-38 0 0 0 0
-0.025003284 0.16773254 1.1354647 1.8824821e-38 0 0 0 0
-0.024088584 0.17144476 1.1313399 1.8732981e-38 0 0 0 0
-0.015593174 0.17212127 1.1345154 1.8089779e-38 0 0 0 0
-0.0073949741 0.17321709 1.1356516 1.8273813e-38 0 0 0 0
0.0054895631 0.17676976 1.1343403 1.8273812e-38 0 0 0 0
0.015149552 0.17686205 1.1364115 1.8549317e-38 0 0 0 0
0.024095044 0.17849177 1.1327815 1.8641157e-38 0 0 0 0
0.035442285 0.17709319 1.1347014 1.8824831e-38 0 0 0 0
0.044486407 0.17538968 1.1366626 1.8363838e-38 0 0 0 0
0.055479765 0.17473519 1.136086 1.5295439e-38 0 0 0 0
0.063559741 0.17291486 1.1371711 1.5917786e-38 0 0 0 0
0.16467789 0.1768368 1.1332339 1.9098897e-38 0 0 0 0
0.17593203 0.17220068 1.1376269 1.6426657e-38 0 0 0 0
0.18503475 0.17410681 1.1356614 1.7533366e-38 0 0 0 0
0.19600984 0.17760062 1.1332829 1.7904311e-38 0 0 0 0
0.2050335 0.17738423 1.1375251 1.6705042e-38 0 0 0 0
0.21399367 0.17834926 1.1386596 1.6334818e-38 0 0 0 0
0.22271381 0.17882313 1.1389467 1.513663e-38 0 0 0 0
0.23300898 0.1794163 1.138366 1.6793641e-38 0 0 0 0
0.24390942 0.17982362 1.1386191 1.1819014e-38 0 0 0 0
0.2526229 0.17969802 1.1385359 1.0982427e-38 0 0 0 0
0.26752177 0.17789538 1.1371388 9.0445268e-39 0 0 0 0
0.27526394 0.1771974 1.1344616 9.5058735e-39 0 0 0 0
0.28543067 0.1739167 1.1343776 1.2371149e-38 0 0 0 0
0.29122409 0.17261134 1.132521 1.9557005e-38 0 0 0 0
0.20547052 0.18041438 1.1327828 1.7444414e-38 0 0 0 0
0.21471488 0.18214911 1.1326891 1.7810317e-38 0 0 0 0
0.22489949 0.18233894 1.1330276 1.7437575e-38 0 0 0 0
0.23470244 0.18183236 1.1345512 1.6792921e-38 0 0 0 0
0.24510439 0.18272555 1.133685 1.3658257e-38 0 0 0 0
0.25473493 0.18237303 1.1337165 1.2827422e-38 0 0 0 0
0.26390055 0.18076362 1.1334642 1.1072819e-38 0 0 0 0
0.2701295 0.18104319 1.1304808 9.0484841e-39 0 0 0 0
-0.04543484 0.024356864 1.144995 1.1994839e-38 0 0 0 0
-0.032740712 0.021718767 1.1465425 1.633842e-38 0 0 0 0
-0.024589956 0.024119528 1.1471827 1.7074906e-38 0 0 0 0
-0.020623611 0.032129694 1.1454517 1.1545669e-38 0 0 0 0
-0.01914629 0.034001239 1.1463383 1.0161657e-38 0 0 0 0
0.32692361 0.034553081 1.1459937 8.3916254e-39 0 0 0 0
-0.020871732 0.044054244 1.1429106 1.0709077e-38 0 0 0 0
-0.018198438 0.046805605 1.1488113 1.0157339e-38 0 0 0 0
0.32559916 0.044446107 1.1442498 8.9473285e-39 0 0 0 0
-0.021546787 0.052769065 1.1433263 1.0158778e-38 0 0 0 0
-0.019736214 0.055401698 1.1493727 9.7903581e-39 0 0 0 0
0.32445687 0.051238537 1.1461159 1.3462703e-38 0 0 0 0
-0.022670148 0.065108202 1.1463306 9.3311764e-39 0 0 0 0
-0.024314506 0.075550564 1.1427163 9.1467795e-39 0 0 0 0
-0.024313245 0.085176095 1.1439745 9.6981485e-39 0 0 0 0
-0.024843112 0.093915381 1.1446291 9.5148362e-39 0 0 0 0
-0.026394613 0.10565357 1.1440701 9.6985156e-39 0 0 0 0
-0.027280815 0.11460046 1.1459986 9.793228e-39 0 0 0 0
-0.030137589 0.12757783 1.1441417 1.0990333e-38 0 0 0 0
-0.02989988 0.12528196 1.1442961 1.0806304e-38 0 0 0 0
-0.031096898 0.13470313 1.1449106 1.1452028e-38 0 0 0 0
-0.030922648 0.14480692 1.1454144 1.2375063e-38 0 0 0 0
-0.030732976 0.15412855 1.1419114 1.486292e-38 0 0 0 0
-0.027764378 0.15702897 1.1434128 1.845641e-38 0 0 0 0
-0.02404443 0.16182677 1.142789 1.8732987e-38 0 0 0 0
-0.01593443 0.16541611 1.1442126 1.873262e-38 0 0 0 0
-0.006891048 0.16726454 1.1458385 1.8365294e-38 0 0 0 0
0.036031861 0.16969201 1.146323 1.9100693e-38 0 0 0 0
0.044754297 0.16929735 1.1460783 1.8823746e-38 0 0 0 0
0.05599067 0.16913769 1.1449863 1.8046558e-38 0 0 0 0
0.062151555 0.16861007 1.1444943 1.5917788e-38 0 0 0 0
0.16573627 0.16821612 1.1495204 1.8455685e-38 0 0 0 0
0.17358972 0.16838336 1.1437449 1.7350764e-38 0 0 0 0
0.18489376 0.16471365 1.1479169 1.5962795e-38 0 0 0 0
0.19294097 0.16908585 1.1447475 1.6791472e-38 0 0 0 0
0.28247407 0.16959967 1.1450323 9.1388902e-39 0 0 0 0
-0.0012514828 0.17093948 1.1418937 1.8549316e-38 0 0 0 0
0.0050382065 0.17178814 1.1423022 1.8273808e-38 0 0 0 0
0.025072241 0.17171834 1.1443559 1.8549316e-38 0 0 0 0
0.035558719 0.17189085 1.142859 1.90085e-38 0 0 0 0
0.045085326 0.17163903 1.1423522 1.8640071e-38 0 0 0 0
0.054628897 0.1712832 1.1418288 1.7595652e-38 0 0 0 0
0.061960731 0.17031381 1.1417376 1.701802e-38 0 0 0 0
0.16717106 0.1713199 1.1429439 1.8732631e-38 0 0 0 0
0.18376742 0.17108572 1.1401635 1.63341e-38 0 0 0 0
0.19538654 0.17151867 1.1425318 1.7161702e-38 0 0 0 0
0.20436129 0.17293763 1.1434357 1.6423776e-38 0 0 0 0
0.21558207 0.17291735 1.1475425 1.4857173e-38 0 0 0 0
0.22590503 0.17556268 1.1442043 1.4028484e-38 0 0 0 0
0.23503159 0.17583793 1.1444392 1.5594377e-38 0 0 0 0
0.24561042 0.1763591 1.1444343 1.1995853e-38 0 0 0 0
0.25565571 0.17397544 1.1470072 9.5976922e-39 0 0 0 0
0.26495808 0.17112289 1.148864 8.8586964e-39 0 0 0 0
0.27378625 0.17082644 1.1462268 8.8586964e-39 0 0 0 0
0.28181106 0.17132042 1.142319 9.3232885e-39 0 0 0 0
-0.035924036 0.018433074 1.1512471 1.4858619e-38 0 0 0 0
-0.025159864 0.017849697 1.1538279 1.7075265e-38 0 0 0 0
-0.019985097 0.019042958 1.1557701 1.6980918e-38 0 0 0 0
-0.017843334 0.0261454 1.1523802 1.1637153e-38 0 0 0 0
0.31796211 0.024635943 1.1575401 8.4834595e-39 0 0 0 0
-0.014932434 0.032912195 1.1534332 9.1460691e-39 0 0 0 0
0.32200819 0.033858579 1.1527872 8.8522476e-39 0 0 0 0
-0.015725028 0.044020586 1.1532423 9.7892763e-39 0 0 0 0
0.32237858 0.044031743 1.152961 1.2079793e-38 0 0 0 0
-0.017180549 0.054050289 1.1563976 9.6985184e-39 0 0 0 0
0.32271546 0.055088356 1.1537519 1.762087e-38 0 0 0 0
-0.019172557 0.064466052 1.157287 9.2382591e-39 0 0 0 0
0.3223924 0.061109003 1.1559381 1.8362402e-38 0 0 0 0
-0.020919571 0.07556136 1.1538458 9.0542238e-39 0 0 0 0
-0.021590715 0.085155129 1.1541477 9.4219217e-39 0 0 0 0
-0.022808727 0.095048234 1.1537957 9.4219217e-39 0 0 0 0
-0.022879463 0.1012876 1.157234 9.2386122e-39 0 0 0 0
-0.025723688 0.11434566 1.1540433 9.7010337e-39 0 0 0 0
-0.027696339 0.12510562 1.1534146 1.0622633e-38 0 0 0 0
-0.02829862 0.13561273 1.1540818 1.2188158e-38 0 0 0 0
-0.027090788 0.14538938 1.1527543 1.3852003e-38 0 0 0 0
-0.023665184 0.15407795 1.1511395 1.854859e-38 0 0 0 0
-0.017538885 0.15426698 1.1570432 1.8824817e-38 0 0 0 0
-0.0085040219 0.15982674 1.156579 1.8180886e-38 0 0 0 0
0.17556866 0.15818773 1.1570989 1.36597e-38 0 0 0 0
0.18455251 0.15868139 1.1554525 1.4208562e-38 0 0 0 0
0.19528933 0.15893263 1.158033 1.3563545e-38 0 0 0 0
-0.015614829 0.16132772 1.1503012 1.9008482e-38 0 0 0 0
-0.004231473 0.16386566 1.1521661 1.9099976e-38 0 0 0 0
0.003698288 0.16312808 1.1556427 1.891666e-38 0 0 0 0
0.015376802 0.1659279 1.1536227 1.8365646e-38 0 0 0 0
0.024706049 0.16639425 1.1530645 1.8365643e-38 0 0 0 0
0.044999756 0.16515587 1.1526598 1.9191084e-38 0 0 0 0
0.055480983 0.16293365 1.1554127 1.8873079e-38 0 0 0 0
0.061309297 0.16353685 1.1528339 1.5918147e-38 0 0 0 0
0.16806689 0.16335458 1.1551976 1.6242626e-38 0 0 0 0
0.17408048 0.16310786 1.1507725 1.70713e-38 0 0 0 0
0.19603883 0.16363373 1.1527481 1.5132314e-38 0 0 0 0
0.2063759 0.16551846 1.154192 1.4579139e-38 0 0 0 0
0.21441935 0.16843674 1.1538913 1.3844102e-38 0 0 0 0
0.2247594 0.16933046 1.1542155 1.3013615e-38 0 0 0 0
0.2341415 0.16810146 1.156324 1.1538827e-38 0 0 0 0
0.2445958 0.16804276 1.1565917 1.0243779e-38 0 0 0 0
0.25511029 0.16841809 1.1549431 8.7679301e-39 0 0 0 0
0.26498264 0.16700609 1.1544716 8.5824682e-39 0 0 0 0
0.27522191 0.16367507 1.1566153 8.3051681e-39 0 0 0 0
0.28336763 0.16299216 1.1555548 8.3094911e-39 0 0 0 0
0.29468673 0.16249771 1.154381 1.449453e-38 0 0 0 0
0.22451805 0.17202157 1.1500505 1.3659706e-38 0 0 0 0
0.23519129 0.17171633 1.15095 1.3841582e-38 0 0 0 0
0.24485689 0.17181121 1.1513522 1.1441245e-38 0 0 0 0
-0.034369607 0.0094545716 1.1684479 1.3194083e-38 0 0 0 0
-0.02544019 0.0096479822 1.1671836 1.6246223e-38 0 0 0 0
-0.033675864 0.011486831 1.1633466 1.3381347e-38 0 0 0 0
-0.025034163 0.01257953 1.1616901 1.6706119e-38 0 0 0 0
-0.015970383 0.01513121 1.1652471 1.5783085e-38 0 0 0 0
0.28473818 0.016473155 1.1671021 8.6671305e-39 0 0 0 0
-0.011201927 0.023793735 1.1652257 1.0527932e-38 0 0 0 0
0.28603363 0.024095319 1.167933 9.4976114e-39 0 0 0 0
0.29538798 0.024937671 1.1655762 8.7611338e-39 0 0 0 0
0.30443612 0.026023092 1.1635705 8.4849056e-39 0 0 0 0
0.31214505 0.024835158 1.1610682 8.4841798e-39 0 0 0 0
-0.010037525 0.036998536 1.1654654 9.2382535e-39 0 0 0 0
0.29508269 0.03297792 1.1688005 1.2357458e-38 0 0 0 0
0.30528265 0.035669975 1.1659853 1.2173796e-38 0 0 0 0
0.31356025 0.036524102 1.1616124 9.9589469e-39 0 0 0 0
-0.01200131 0.045942884 1.1643621 9.1460607e-39 0 0 0 0
0.30705935 0.043775648 1.1690203 1.5875288e-38 0 0 0 0
0.31657186 0.047397405 1.1627624 1.5498566e-38 0 0 0 0
-0.015069121 0.05543115 1.1636682 9.2382591e-39 0 0 0 0
0.31758368 0.056053042 1.1646984 1.7347185e-38 0 0 0 0
-0.017757237 0.065630198 1.1620336 9.0542266e-39 0 0 0 0
0.31759858 0.064683959 1.1684474 1.5783825e-38 0 0 0 0
0.32074377 0.066524349 1.1627297 1.8177305e-38 0 0 0 0
-0.017855713 0.075985134 1.1638677 8.9623883e-39 0 0 0 0
0.32203951 0.075884692 1.1639078 1.854753e-38 0 0 0 0
-0.019027023 0.085143201 1.1633782 8.9623827e-39 0 0 0 0
0.32189152 0.082601406 1.1661478 1.8731562e-38 0 0 0 0
-0.019643767 0.093116254 1.1652203 9.053142e-39 0 0 0 0
-0.022075916 0.10545073 1.1640643 9.1471397e-39 0 0 0 0
-0.023148613 0.11615406 1.1660668 9.7013911e-39 0 0 0 0
-0.02321478 0.12390564 1.1679296 1.0254929e-38 0 0 0 0
-0.022498522 0.13506411 1.1667488 1.32034e-38 0 0 0 0
-0.021283446 0.14457855 1.1627595 1.7259296e-38 0 0 0 0
-0.016028803 0.14703386 1.1670829 1.8640788e-38 0 0 0 0
-0.014898915 0.15293247 1.1614051 1.9191805e-38 0 0 0 0
-0.005151757 0.15527001 1.164119 1.9559149e-38 0 0 0 0
0.004564798 0.15654542 1.1662256 1.845712e-38 0 0 0 0
0.014808415 0.15616907 1.1680129 1.8089779e-38 0 0 0 0
0.025369147 0.15723792 1.1671634 1.7905743e-38 0 0 0 0
0.034816142 0.15632108 1.1683646 1.753624e-38 0 0 0 0
0.045201063 0.15686946 1.1671816 1.8731529e-38 0 0 0 0
0.055199854 0.15831727 1.1637504 1.9063236e-38 0 0 0 0
0.060864765 0.15853602 1.1624322 1.6836866e-38 0 0 0 0
0.17358872 0.15420701 1.1644783 1.1721779e-38 0 0 0 0
0.18560453 0.15184006 1.1643422 1.0890222e-38 0 0 0 0
0.19521478 0.15270072 1.1652714 9.7867512e-39 0 0 0 0
0.20486206 0.15506002 1.1659974 1.0890222e-38 0 0 0 0
0.21502249 0.15605727 1.1678168 1.0244852e-38 0 0 0 0
0.22402593 0.15754738 1.1681734 9.9671795e-39 0 0 0 0
0.23593387 0.1572345 1.1692104 8.5831745e-39 0 0 0 0
0.24471292 0.15662529 1.1694272 8.30551e-39 0 0 0 0
0.25487065 0.15693256 1.1684321 8.2122424e-39 0 0 0 0
0.26588878 0.15639775 1.1680996 7.8445375e-39 0 0 0 0
0.27537549 0.15631667 1.167028 8.0282169e-39 0 0 0 0
0.28603867 0.15754235 1.1634569 8.3080534e-39 0 0 0 0
0.29496801 0.15704417 1.1632386 1.2092397e-38 0 0 0 0
0.0077525075 0.16026787 1.1609578 1.8733348e-38 0 0 0 0
0.015430933 0.16074742 1.1612828 1.8365646e-38 0 0 0 0
0.21544518 0.16200554 1.1619679 1.319585e-38 0 0 0 0
0.22472648 0.16259815 1.1630378 1.2181331e-38 0 0 0 0
0.23597597 0.16207115 1.16391 9.8771433e-39 0 0 0 0
0.24512638 0.16274363 1.1628671 9.4111373e-39 0 0 0 0
0.25405842 0.16210255 1.1626278 8.3987888e-39 0 0 0 0
0.26472899 0.16067822 1.162614 8.2136815e-39 0 0 0 0
0.27318713 0.16070279 1.1610838 8.1218544e-39 0 0 0 0
-0.031182455 0.0054343506 1.1748548 1.292001e-38 0 0 0 0
-0.023329886 0.0046835556 1.1750356 1.5507227e-38 0 0 0 0
-0.016256159 0.0064463397 1.1762837 1.6522452e-38 0 0 0 0
-0.011567488 0.012680363 1.1750015 1.4124996e-38 0 0 0 0
-0.0089796903 0.017089037 1.1775173 1.2463298e-38 0 0 0 0
0.25953501 0.014876274 1.1784353 8.7604177e-39 0 0 0 0
0.26469305 0.014289083 1.1759653 8.5770957e-39 0 0 0 0
0.273485 0.015064646 1.172038 8.5770929e-39 0 0 0 0
0.25961027 0.02073678 1.1786155 9.4987058e-39 0 0 0 0
0.26365346 0.025926866 1.1779721 1.1897932e-38 0 0 0 0
0.2732271 0.023388466 1.1726792 9.5908945e-39 0 0 0 0
0.26809531 0.03120617 1.1774523 1.6697119e-38 0 0 0 0
0.2753208 0.034408942 1.1757301 1.6237947e-38 0 0 0 0
0.2855123 0.034601022 1.172393 1.4766048e-38 0 0 0 0
0.29394871 0.038404144 1.1715949 1.642233e-38 0 0 0 0
-0.0096926941 0.044693705 1.1728752 8.6857972e-39 0 0 0 0
0.27878821 0.041735817 1.1779832 1.3106538e-38 0 0 0 0
0.28533047 0.044033848 1.1767393 1.1814367e-38 0 0 0 0
0.29755127 0.041929089 1.1723154 1.4858609e-38 0 0 0 0
0.30515373 0.048097782 1.1718732 1.2464787e-38 0 0 0 0
-0.011491117 0.054908458 1.1761549 8.6861573e-39 0 0 0 0
0.29672575 0.051114894 1.1775701 8.1200678e-39 0 0 0 0
0.30387357 0.056280151 1.1770775 8.3105883e-39 0 0 0 0
0.31070229 0.058913998 1.1735134 1.0069867e-38 0 0 0 0
-0.01389458 0.064870477 1.1728119 8.7776383e-39 0 0 0 0
0.30946565 0.066591419 1.1781456 9.5980733e-39 0 0 0 0
0.31234735 0.064551219 1.1747122 1.0435394e-38 0 0 0 0
-0.01409545 0.074853078 1.1755227 8.9620225e-39 0 0 0 0
0.3165732 0.073845759 1.1735857 1.4401607e-38 0 0 0 0
-0.015250124 0.085484147 1.177205 8.5028395e-39 0 0 0 0
0.31848502 0.085937344 1.1742895 1.7995434e-38 0 0 0 0
0.32005671 0.081526488 1.1702307 1.8088352e-38 0 0 0 0
-0.017352907 0.096272565 1.17617 8.9616652e-39 0 0 0 0
0.31841654 0.093382522 1.1758289 1.9375126e-38 0 0 0 0
-0.020085482 0.10617015 1.1726249 8.9638246e-39 0 0 0 0
-0.018621128 0.10536572 1.1770414 8.7794348e-39 0 0 0 0
-0.020642349 0.11291838 1.1740946 9.3322498e-39 0 0 0 0
-0.01987635 0.11631742 1.1773554 9.7006708e-39 0 0 0 0
0.31768066 0.11616045 1.1785563 1.9375489e-38 0 0 0 0
-0.021052795 0.1273099 1.1729164 1.0440767e-38 0 0 0 0
-0.019250259 0.1255891 1.1770946 1.0165256e-38 0 0 0 0
-0.020068424 0.13356929 1.1722966 1.3203754e-38 0 0 0 0
-0.017658552 0.1353319 1.1750464 1.5690172e-38 0 0 0 0
-0.012995818 0.14235619 1.1745361 1.8365279e-38 0 0 0 0
-0.0073377648 0.1459296 1.1755521 1.928364e-38 0 0 0 0
0.17831592 0.14585635 1.1747969 9.3254087e-39 0 0 0 0
0.18592842 0.14489102 1.1745009 8.6771694e-39 0 0 0 0
0.1949911 0.14561066 1.1749387 8.0314427e-39 0 0 0 0
0.20547336 0.14638664 1.1762103 8.0300077e-39 0 0 0 0
0.21311343 0.14779657 1.1759944 8.6739352e-39 0 0 0 0
0.22748426 0.14855999 1.1776627 7.8456151e-39 0 0 0 0
0.23537202 0.14891437 1.1774484 7.6612252e-39 0 0 0 0
0.24548499 0.14929794 1.1771568 7.8441717e-39 0 0 0 0
0.25894833 0.14947288 1.1772738 8.1193237e-39 0 0 0 0
0.26493192 0.14947441 1.1772726 7.7519831e-39 0 0 0 0
0.27315071 0.14943248 1.1772377 7.6605091e-39 0 0 0 0
0.28541246 0.14896242 1.1772164 8.1204125e-39 0 0 0 0
0.29052779 0.14792392 1.1777343 7.5715645e-39 0 0 0 0
0.30212668 0.14536683 1.1733788 1.4130056e-38 0 0 0 0
-0.0019939702 0.15035076 1.1726054 1.8916662e-38 0 0 0 0
0.014228877 0.15164904 1.174697 1.7903948e-38 0 0 0 0
0.023810524 0.15232991 1.1747389 1.7352209e-38 0 0 0 0
0.035194457 0.15204114 1.1751885 1.6888699e-38 0 0 0 0
0.044390306 0.15225327 1.1750197 1.6704669e-38 0 0 0 0
0.053563658 0.15252616 1.1745083 1.7983539e-38 0 0 0 0
0.20125678 0.15007849 1.1705242 8.6768107e-39 0 0 0 0
0.21578583 0.15116683 1.1730932 9.136707e-39 0 0 0 0
0.225585 0.15248187 1.1732578 8.7668497e-39 0 0 0 0
0.23407932 0.15327884 1.1731904 8.122202e-39 0 0 0 0
0.24539018 0.15221953 1.1738029 8.0289203e-39 0 0 0 0
0.25470492 0.15184519 1.1742719 8.2115193e-39 0 0 0 0
0.26192653 0.15223949 1.1735603 8.0271309e-39 0 0 0 0
0.27374551 0.15182133 1.1736904 7.9363744e-39 0 0 0 0
0.2871258 0.15112345 1.1732045 8.2140529e-39 0 0 0 0
0.29439351 0.15048921 1.1732364 9.1389014e-39 0 0 0 0
-0.025323024 -0.0028228133 1.1863387 1.1995563e-38 0 0 0 0
-0.017156661 -0.0030999656 1.1867095 1.4765709e-38 0 0 0 0
-0.0099871652 -0.0024911219 1.1893703 1.6060746e-38 0 0 0 0
-0.031341065 0.0020976302 1.18085 1.1532431e-38 0 0 0 0
-0.022867145 0.00118958 1.1801324 1.4493802e-38 0 0 0 0
-0.014292078 0.0036391753 1.1814442 1.6889075e-38 0 0 0 0
-0.0090997685 0.0074344957 1.182654 1.486329e-38 0 0 0 0
0.22653742 0.0071869059 1.1896236 8.4849042e-39 0 0 0 0
0.23615256 0.0045251814 1.188288 8.1157616e-39 0 0 0 0
0.24472395 0.0045111789 1.1868234 7.655861e-39 0 0 0 0
0.2549133 0.0057483539 1.1834698 7.8391719e-39 0 0 0 0
-0.0065396526 0.014227691 1.1837857 1.2553356e-38 0 0 0 0
0.22546318 0.014206257 1.1885024 9.2228364e-39 0 0 0 0
0.23634046 0.013847502 1.1857736 8.7607807e-39 0 0 0 0
0.24557552 0.014656689 1.183247 8.3941533e-39 0 0 0 0
0.25443047 0.014747025 1.1805211 8.6682207e-39 0 0 0 0
-0.0051101623 0.023908481 1.1864507 1.0986757e-38 0 0 0 0
0.2255934 0.024507102 1.1896708 1.697371e-38 0 0 0 0
0.23502089 0.02515083 1.1871345 1.5405304e-38 0 0 0 0
0.24499197 0.024712699 1.1851461 1.4113131e-38 0 0 0 0
0.25523016 0.024973791 1.1817557 1.2265991e-38 0 0 0 0
-0.006751467 0.037152391 1.1819726 8.7776285e-39 0 0 0 0
0.23596247 0.031998951 1.1899564 1.6061843e-38 0 0 0 0
0.24565178 0.031964425 1.1876855 1.7442615e-38 0 0 0 0
0.25521994 0.034470908 1.1853637 1.6795809e-38 0 0 0 0
0.26380566 0.035766806 1.1815126 1.6978038e-38 0 0 0 0
-0.0081404336 0.045686282 1.1835895 8.2248148e-39 0 0 0 0
0.25545886 0.042168729 1.1889641 1.0521834e-38 0 0 0 0
0.26549974 0.04473497 1.1855944 8.6746849e-39 0 0 0 0
0.27433136 0.045413759 1.1817615 9.5987978e-39 0 0 0 0
0.28152922 0.04786532 1.1802255 8.3963015e-39 0 0 0 0
-0.0092726313 0.056896385 1.1852114 8.1322633e-39 0 0 0 0
0.26767555 0.051986277 1.1893723 7.1973716e-39 0 0 0 0
0.27565029 0.053820506 1.1867692 7.3817657e-39 0 0 0 0
0.28503954 0.054985221 1.1840397 7.8413075e-39 0 0 0 0
0.29377633 0.056500565 1.1819067 7.1988191e-39 0 0 0 0
-0.01112667 0.064687051 1.1815755 8.5010486e-39 0 0 0 0
0.28757265 0.064540356 1.1890166 7.1966541e-39 0 0 0 0
0.29489097 0.064976767 1.1863618 6.921512e-39 0 0 0 0
0.30410868 0.066161044 1.1817039 7.8424005e-39 0 0 0 0
-0.011491698 0.074462213 1.1850601 8.5918009e-39 0 0 0 0
0.29698086 0.074267939 1.1897502 7.106255e-39 0 0 0 0
0.3053748 0.074954405 1.1847897 7.9352968e-39 0 0 0 0
0.31203812 0.079623036 1.1816233 1.0525069e-38 0 0 0 0
-0.012601023 0.084406428 1.1865364 8.041141e-39 0 0 0 0
0.30678156 0.083825417 1.1881422 7.8445389e-39 0 0 0 0
0.3128261 0.086098559 1.1831852 1.1725411e-38 0 0 0 0
-0.014440849 0.094108269 1.1850693 8.7772698e-39 0 0 0 0
0.30927888 0.094175503 1.1898261 8.9501858e-39 0 0 0 0
0.31445259 0.094743282 1.1836325 1.4950826e-38 0 0 0 0
-0.01646354 0.10584985 1.1853772 8.411011e-39 0 0 0 0
0.31506261 0.1045285 1.1839139 1.6519948e-38 0 0 0 0
-0.017714107 0.11517254 1.183939 9.4244426e-39 0 0 0 0
0.31457546 0.11465215 1.1839051 1.6522828e-38 0 0 0 0
-0.015932303 0.12549508 1.1841481 1.1638584e-38 0 0 0 0
-0.011320217 0.13688752 1.1818522 1.7443321e-38 0 0 0 0
-0.0064763837 0.13658948 1.1871933 1.6612477e-38 0 0 0 0
0.1755536 0.13947332 1.1894262 7.936359e-39 0 0 0 0
0.18482472 0.13869919 1.1877838 7.5683037e-39 0 0 0 0
0.19479509 0.13850378 1.1868625 7.3842754e-39 0 0 0 0
0.20450284 0.13898554 1.1863434 7.2927972e-39 0 0 0 0
0.21575916 0.139423 1.186649 7.2920812e-39 0 0 0 0
0.22382317 0.13962241 1.1875725 7.6587057e-39 0 0 0 0
0.23590285 0.13941103 1.1890891 7.7505412e-39 0 0 0 0
0.24455456 0.13997754 1.1894761 7.4743088e-39 0 0 0 0
0.29441816 0.13928099 1.1889985 7.4790074e-39 0 0 0 0
-0.0025639003 0.14377518 1.1811111 1.9375116e-38 0 0 0 0
0.0034772474 0.14275762 1.1857795 1.8085814e-38 0 0 0 0
0.055669621 0.14692062 1.183768 1.5866996e-38 0 0 0 0
0.17745954 0.14185391 1.1839809 8.4906131e-39 0 0 0 0
0.18379715 0.14157178 1.1813238 8.1225537e-39 0 0 0 0
0.19380081 0.14142585 1.181304 7.5693841e-39 0 0 0 0
0.20460926 0.14187293 1.1818715 7.3846383e-39 0 0 0 0
0.21570715 0.14361851 1.1813058 7.7530593e-39 0 0 0 0
0.22486953 0.14435148 1.1819316 7.5690268e-39 0 0 0 0
0.2350222 0.14450514 1.1825289 7.5679506e-39 0 0 0 0
0.24507053 0.14419845 1.1835763 7.659063e-39 0 0 0 0
0.25520664 0.1450762 1.1834521 7.8423767e-39 0 0 0 0
0.2643593 0.14448898 1.1848267 7.3839195e-39 0 0 0 0
0.27574518 0.14433028 1.1855286 7.567952e-39 0 0 0 0
0.28450018 0.14487574 1.1840199 8.0271351e-39 0 0 0 0
0.2940203 0.14362523 1.1823425 7.8488717e-39 0 0 0 0
-0.024150634 -0.0077420194 1.1932814 1.1254771e-38 0 0 0 0
-0.0037878284 -0.0034858235 1.197233 1.615258e-38 0 0 0 0
0.18754143 -0.0010374795 1.199844 9.2228434e-39 0 0 0 0
0.21565947 -0.0033123866 1.1982106 7.9317431e-39 0 0 0 0
0.22486904 -0.002145336 1.1957959 7.8398978e-39 0 0 0 0
-0.0025979732 0.0043352526 1.1946526 1.3753707e-38 0 0 0 0
0.18347548 0.0056195697 1.1988752 9.6838272e-39 0 0 0 0
0.19522768 0.004543283 1.1974269 9.3146789e-39 0 0 0 0
0.2050176 0.0045623383 1.1962394 8.7622226e-39 0 0 0 0
0.21393228 0.0048584007 1.1938962 8.3937974e-39 0 0 0 0
0.22322637 0.003262769 1.1922082 8.2086831e-39 0 0 0 0
0.23017608 0.0023097422 1.1913123 8.1161217e-39 0 0 0 0
-0.0019430429 0.015467828 1.1940006 1.338059e-38 0 0 0 0
0.18568601 0.014612257 1.1988916 1.2267442e-38 0 0 0 0
0.19275331 0.016091267 1.1977291 1.2444643e-38 0 0 0 0
0.20480424 0.014872077 1.194899 1.051501e-38 0 0 0 0
0.21485166 0.014720157 1.1916512 9.9604001e-39 0 0 0 0
-0.0024458028 0.024448423 1.1954532 1.0338508e-38 0 0 0 0
0.18895672 0.022258384 1.1997962 1.7350418e-38 0 0 0 0
0.19497749 0.02554886 1.198635 1.679724e-38 0 0 0 0
0.20338756 0.027473625 1.1966496 1.6428092e-38 0 0 0 0
0.21481767 0.024591334 1.1929549 1.5871675e-38 0 0 0 0
-0.0040606847 0.034408893 1.1945525 8.4996123e-39 0 0 0 0
0.20381781 0.034897737 1.1991959 9.5101993e-39 0 0 0 0
0.21485879 0.034259912 1.1960765 1.0704061e-38 0 0 0 0
0.22554028 0.033843819 1.1932385 1.227643e-38 0 0 0 0
0.23502442 0.037831094 1.193387 9.877914e-39 0 0 0 0
0.24442224 0.03942455 1.1917734 1.0800593e-38 0 0 0 0
-0.0048975898 0.045680009 1.1967913 7.8545974e-39 0 0 0 0
0.23613881 0.044569694 1.1976007 7.8413005e-39 0 0 0 0
0.24480608 0.045713566 1.1957287 7.5657968e-39 0 0 0 0
0.25381663 0.046561688 1.1922165 7.7501979e-39 0 0 0 0
-0.0060205073 0.055573847 1.1976718 8.0321559e-39 0 0 0 0
0.24716042 0.053142004 1.1994538 7.0129789e-39 0 0 0 0
0.25542873 0.054216608 1.1965852 7.10482e-39 0 0 0 0
0.26219848 0.055402949 1.1940022 7.1962898e-39 0 0 0 0
0.27543798 0.05992363 1.1904007 7.2884854e-39 0 0 0 0
-0.0078343377 0.064169623 1.1941004 8.2223023e-39 0 0 0 0
0.26654071 0.061929334 1.1955562 7.0129733e-39 0 0 0 0
0.27446899 0.066905238 1.1946527 6.9204218e-39 0 0 0 0
0.28207386 0.066679262 1.1918377 7.287768e-39 0 0 0 0
-0.0087333666 0.078589961 1.1972191 8.1275899e-39 0 0 0 0
0.27434063 0.072881401 1.1980801 6.5527196e-39 0 0 0 0
0.28717482 0.072586186 1.193107 6.9204274e-39 0 0 0 0
0.29477608 0.076612465 1.1919227 6.9218651e-39 0 0 0 0
-0.010367566 0.086477928 1.1950396 7.6709236e-39 0 0 0 0
0.28573483 0.083723933 1.1984777 6.6441964e-39 0 0 0 0
0.29448354 0.084524721 1.1953218 6.7374766e-39 0 0 0 0
0.30211329 0.086296163 1.1924126 7.1073368e-39 0 0 0 0
-0.011493378 0.0956508 1.195703 8.1311829e-39 0 0 0 0
0.29811376 0.090365849 1.1960993 6.6460069e-39 0 0 0 0
0.30424961 0.095652618 1.1946672 7.3839349e-39 0 0 0 0
-0.01303603 0.10475671 1.1952206 8.0418669e-39 0 0 0 0
0.30802298 0.10482506 1.1940496 9.5044315e-39 0 0 0 0
-0.012483341 0.11578382 1.1951677 9.4230063e-39 0 0 0 0
-0.010738426 0.12479339 1.1932797 1.3018997e-38 0 0 0 0
-0.0077061458 0.12803185 1.1946586 1.3938789e-38 0 0 0 0
-0.0028806026 0.13249749 1.194903 1.5044778e-38 0 0 0 0
0.0035540662 0.1352901 1.1959169 1.6240095e-38 0 0 0 0
0.021621281 0.13885966 1.1950102 1.513554e-38 0 0 0 0
0.17618527 0.13503538 1.1962668 7.7508957e-39 0 0 0 0
0.18415937 0.13386168 1.1960318 7.5672247e-39 0 0 0 0
0.1952949 0.13261826 1.1967013 7.2913637e-39 0 0 0 0
0.20526034 0.13298781 1.1960531 7.1998869e-39 0 0 0 0
0.2171227 0.13310614 1.1971531 7.0129775e-39 0 0 0 0
0.22476798 0.13439164 1.1963403 7.3817601e-39 0 0 0 0
0.23451072 0.13578817 1.1955889 7.8412977e-39 0 0 0 0
0.24559344 0.1373232 1.1949167 7.2892001e-39 0 0 0 0
0.25487202 0.13805932 1.1960461 7.1048158e-39 0 0 0 0
0.26382488 0.13870788 1.1963471 7.1962926e-39 0 0 0 0
0.27425492 0.1386964 1.1954998 7.1055347e-39 0 0 0 0
0.28380543 0.1387037 1.1945286 7.4739599e-39 0 0 0 0
0.29516742 0.13532269 1.1946084 7.661598e-39 0 0 0 0
0.25473303 0.14093432 1.1905811 7.3814027e-39 0 0 0 0
0.26596102 0.14108026 1.1909292 7.1984506e-39 0 0 0 0
0.28700277 0.14118588 1.1903449 7.4754004e-39 0 0 0 0
-0.016850613 -0.015790652 1.2054292 1.106966e-38 0 0 0 0
-0.0041644289 -0.012067821 1.2058139 1.1812243e-38 0 0 0 0
0.1547296 -0.01143152 1.2095039 9.4065158e-39 0 0 0 0
0.16638248 -0.010934217 1.2089896 9.4979898e-39 0 0 0 0
0.17586765 -0.010770303 1.2084326 8.8533476e-39 0 0 0 0
-9.1189722e-05 -0.0046385885 1.2043539 1.6154732e-38 0 0 0 0
0.13379458 -0.0049759336 1.2091227 9.8693002e-39 0 0 0 0
0.14486729 -0.0047068745 1.2070546 9.5934322e-39 0 0 0 0
0.15421391 -0.0045550498 1.2054837 9.592349e-39 0 0 0 0
0.16598772 -0.0044055623 1.2045314 9.6823866e-39 0 0 0 0
0.17462441 -0.0063115265 1.2049217 9.130652e-39 0 0 0 0
0.18392923 -0.006563012 1.2038096 8.8540581e-39 0 0 0 0
0.1936281 -0.0051228926 1.2019897 8.9458894e-39 0 0 0 0
0.20591488 -0.0032828865 1.2000115 8.6693053e-39 0 0 0 0
0.0012660153 0.004841628 1.2034786 1.1540279e-38 0 0 0 0
0.13638915 0.0034748716 1.2086008 1.1436613e-38 0 0 0 0
0.14551696 0.0036012346 1.2067716 1.1065315e-38 0 0 0 0
0.15378352 0.0033401689 1.2046591 1.0145519e-38 0 0 0 0
0.16542056 0.0046026763 1.202487 9.8689345e-39 0 0 0 0
0.17644815 0.0070303283 1.2002908 1.005225e-38 0 0 0 0
0.0013717974 0.01265382 1.2047132 1.2458628e-38 0 0 0 0
0.14522707 0.010889865 1.2082235 1.6513096e-38 0 0 0 0
0.15369408 0.016527984 1.2079535 1.7346098e-38 0 0 0 0
0.16522501 0.014765843 1.2042111 1.5040134e-38 0 0 0 0
0.17458372 0.015477478 1.2015228 1.4849986e-38 0 0 0 0
-0.0012078022 0.026493672 1.2042949 8.3109078e-39 0 0 0 0
0.1659053 0.024474794 1.2075019 1.4677462e-38 0 0 0 0
0.17546389 0.025231967 1.2041979 1.5505076e-38 0 0 0 0
0.18483798 0.025600897 1.2016236 1.6702533e-38 0 0 0 0
-0.0017531116 0.032560311 1.204699 7.7573767e-39 0 0 0 0
0.18290439 0.033082172 1.2052202 9.1342127e-39 0 0 0 0
0.19443257 0.034626301 1.201501 9.6927899e-39 0 0 0 0
-0.0034056131 0.045996126 1.2036971 8.2205002e-39 0 0 0 0
0.18565437 0.040315971 1.207153 7.2895644e-39 0 0 0 0
0.19366378 0.046001852 1.2071106 7.1973688e-39 0 0 0 0
0.20553997 0.043218993 1.2027202 7.1977275e-39 0 0 0 0
0.21444908 0.04312798 1.2011403 7.2895672e-39 0 0 0 0
0.22438656 0.046460427 1.2013589 7.3806853e-39 0 0 0 0
0.23152266 0.047392275 1.200631 7.6565449e-39 0 0 0 0
-0.0044916999 0.054239031 1.2034205 7.8481262e-39 0 0 0 0
0.1986879 0.051246993 1.2084005 7.012616e-39 0 0 0 0
0.20562714 0.051084936 1.2069857 6.9207791e-39 0 0 0 0
0.21560203 0.053614195 1.2067246 7.0122559e-39 0 0 0 0
0.2252599 0.05536183 1.2063497 7.1955681e-39 0 0 0 0
0.23520042 0.054188706 1.204293 7.2881225e-39 0 0 0 0
0.24267411 0.055239089 1.2027367 7.1044543e-39 0 0 0 0
-0.00580067 0.065881111 1.2033758 8.0343195e-39 0 0 0 0
0.24409062 0.064903453 1.207005 6.6452754e-39 0 0 0 0
0.25505903 0.0643088 1.2026246 6.9207805e-39 0 0 0 0
0.26366264 0.067933641 1.200231 6.736748e-39 0 0 0 0
-0.0068943608 0.075592563 1.2026727 8.1250774e-39 0 0 0 0
0.25548846 0.075109921 1.2078077 6.8271485e-39 0 0 0 0
0.26461518 0.075174302 1.2035134 6.5519994e-39 0 0 0 0
0.27355462 0.076731503 1.20029 6.6438363e-39 0 0 0 0
-0.0077452618 0.084677145 1.2027731 7.6597917e-39 0 0 0 0
0.266987 0.083110444 1.2060556 6.5519994e-39 0 0 0 0
0.27682319 0.083303496 1.201998 6.8267898e-39 0 0 0 0
0.2805883 0.088041484 1.2022659 6.9186267e-39 0 0 0 0
-0.010309096 0.099594913 1.2020025 7.7634794e-39 0 0 0 0
-0.0081527513 0.094570525 1.2061797 7.7555732e-39 0 0 0 0
0.27352187 0.093806766 1.2072729 6.7353116e-39 0 0 0 0
0.28417408 0.094069742 1.2029784 6.6449139e-39 0 0 0 0
-0.0092771593 0.10555641 1.2045426 7.7613214e-39 0 0 0 0
-0.0085841166 0.11338927 1.2037166 9.1410202e-39 0 0 0 0
-0.0056404509 0.1230109 1.201936 1.2001976e-38 0 0 0 0
0.0040518222 0.12990968 1.2035022 1.3018269e-38 0 0 0 0
0.17653987 0.12975955 1.2039583 7.6572637e-39 0 0 0 0
0.18518008 0.12874433 1.2044834 7.5650653e-39 0 0 0 0
0.19439688 0.12869136 1.203796 7.2892043e-39 0 0 0 0
0.20490623 0.12959918 1.2021458 7.1062522e-39 0 0 0 0
0.21552639 0.12898989 1.2043301 6.9200616e-39 0 0 0 0
0.22490029 0.12942748 1.205238 6.4601653e-39 0 0 0 0
0.24466375 0.12933563 1.2094216 7.0118943e-39 0 0 0 0
0.25415492 0.12978089 1.2098666 7.0108223e-39 0 0 0 0
0.26383308 0.12986144 1.209506 7.0104664e-39 0 0 0 0
0.28430215 0.12819752 1.2065084 6.9218665e-39 0 0 0 0
0.29725209 0.12447599 1.2027436 7.9353052e-39 0 0 0 0
0.0066497824 0.13191441 1.2022676 1.4765681e-38 0 0 0 0
0.013353146 0.13049953 1.2066729 1.3014676e-38 0 0 0 0
0.17263919 0.13295361 1.2004414 7.8430885e-39 0 0 0 0
0.20956106 0.13021721 1.2011337 7.1055361e-39 0 0 0 0
0.21185236 0.13033861 1.2012135 7.1051746e-39 0 0 0 0
0.23510759 0.13127717 1.2041591 7.0118985e-39 0 0 0 0
0.24478038 0.13365252 1.2020558 7.2884798e-39 0 0 0 0
0.25645232 0.1339862 1.2036396 7.0111853e-39 0 0 0 0
0.26659137 0.13264757 1.2054682 7.1026606e-39 0 0 0 0
0.2755329 0.13191405 1.2047122 7.0111867e-39 0 0 0 0
0.2837317 0.13330206 1.2018362 7.1055375e-39 0 0 0 0
0.29335287 0.13094971 1.2009107 7.3842866e-39 0 0 0 0
-0.013257974 -0.018644337 1.2105088 1.0885628e-38 0 0 0 0
-0.003417545 -0.017976452 1.2137464 1.1070377e-38 0 0 0 0
0.0037454923 -0.014838602 1.2168759 1.1442027e-38 0 0 0 0
0.085613027 -0.014828879 1.2196128 1.023737e-38 0 0 0 0
0.095422924 -0.015403405 1.2168208 1.0144814e-38 0 0 0 0
0.10584768 -0.015388828 1.2155499 9.5930777e-39 0 0 0 0
0.11460433 -0.013925765 1.2136923 9.5927176e-39 0 0 0 0
0.12452717 -0.014841683 1.2129302 9.4086794e-39 0 0 0 0
0.13631546 -0.012933639 1.2118752 9.1324555e-39 0 0 0 0
0.1472488 -0.013572682 1.2121464 8.9469852e-39 0 0 0 0
0.0048134928 -0.005135498 1.2143508 1.6246206e-38 0 0 0 0
0.085944876 -0.0059216092 1.2194207 1.1254393e-38 0 0 0 0
0.094690733 -0.0042112311 1.2167774 1.1435904e-38 0 0 0 0
0.10541327 -0.004835804 1.2148166 1.0697986e-38 0 0 0 0
0.11444461 -0.0069195889 1.2125449 1.0054415e-38 0 0 0 0
0.12432463 -0.0042941221 1.2102063 9.9625735e-39 0 0 0 0
0.0051703262 0.0046419427 1.2151659 1.0338144e-38 0 0 0 0
0.089657545 0.00088527409 1.2199094 1.8176905e-38 0 0 0 0
0.095421843 0.0043591592 1.2198108 1.7716321e-38 0 0 0 0
0.10522594 0.0045296494 1.2174709 1.779916e-38 0 0 0 0
0.11518133 0.0051406515 1.2145555 1.4390811e-38 0 0 0 0
0.12438762 0.0051400848 1.2117057 1.3190123e-38 0 0 0 0
0.13416217 0.0073918095 1.2101578 1.4852861e-38 0 0 0 0
0.0037159903 0.014259895 1.2159343 1.0981706e-38 0 0 0 0
0.11563573 0.014616416 1.2189226 1.4862214e-38 0 0 0 0
0.12491293 0.015412996 1.216049 1.6335546e-38 0 0 0 0
0.13446096 0.015954848 1.2129716 1.670577e-38 0 0 0 0
0.14510772 0.017641617 1.2106265 1.7535164e-38 0 0 0 0
0.0022909527 0.026479453 1.2194883 7.7559404e-39 0 0 0 0
0.13449463 0.025634963 1.217815 9.4118814e-39 0 0 0 0
0.14481668 0.025887489 1.214681 1.0066263e-38 0 0 0 0
0.15460785 0.025429532 1.2116385 1.1815096e-38 0 0 0 0
-0.00079698808 0.036876798 1.2110684 7.940682e-39 0 0 0 0
0.14454544 0.032908335 1.2187594 7.5672401e-39 0 0 0 0
0.15507098 0.034960698 1.2169073 7.3814097e-39 0 0 0 0
0.1649939 0.035679769 1.2141107 7.8420221e-39 0 0 0 0
0.17473887 0.035282876 1.2100852 8.1204111e-39 0 0 0 0
-0.0012549832 0.044009279 1.2123212 7.9414008e-39 0 0 0 0
0.00049205672 0.042868122 1.2192218 7.4764724e-39 0 0 0 0
0.15537059 0.040235452 1.2196889 6.921149e-39 0 0 0 0
0.1665678 0.044251859 1.2181902 7.1959311e-39 0 0 0 0
0.175758 0.044838086 1.2145864 7.0133349e-39 0 0 0 0
0.18461327 0.046241187 1.2107414 6.6459929e-39 0 0 0 0
-0.0018205637 0.055968776 1.2175303 7.8448892e-39 0 0 0 0
0.1766758 0.053483199 1.2198063 6.6456299e-39 0 0 0 0
0.18545733 0.054933824 1.2154645 6.6452712e-39 0 0 0 0
0.19404274 0.055799428 1.2120749 6.8285849e-39 0 0 0 0
0.2050105 0.058640514 1.2108632 6.7363892e-39 0 0 0 0
-0.0031199001 0.064109184 1.2152332 7.7534166e-39 0 0 0 0
0.18783876 0.063393787 1.2197777 6.7360291e-39 0 0 0 0
0.19482239 0.064976878 1.2176983 6.5527182e-39 0 0 0 0
0.2046454 0.065297075 1.2146162 6.3690473e-39 0 0 0 0
0.21478234 0.064673238 1.2124832 6.1853721e-39 0 0 0 0
0.22372113 0.064666152 1.2116017 6.2768502e-39 0 0 0 0
0.23438768 0.065889187 1.2102445 6.8282247e-39 0 0 0 0
-0.0040171612 0.072920419 1.2141865 7.571189e-39 0 0 0 0
0.20524961 0.07222186 1.2185427 6.4601639e-39 0 0 0 0
0.21511348 0.073320054 1.216841 6.2764887e-39 0 0 0 0
0.22469813 0.074218526 1.2156774 6.5512777e-39 0 0 0 0
0.23470913 0.075027734 1.2139146 6.91934e-39 0 0 0 0
0.2443824 0.075954147 1.2116573 6.460524e-39 0 0 0 0
-0.004015293 0.085566469 1.2172679 7.106255e-39 0 0 0 0
