# .PCD v0.7 - Point Cloud Data file format
VERSION 0.7
FIELDS x y z
SIZE 4 4 4
TYPE F F F
COUNT 1 1 1
WIDTH 1496
HEIGHT 1
VIEWPOINT 0 0 0 1 0 0 0
POINTS 1496
DATA ascii
0.097787499 0.18112861 1.131
0.10507313 0.18217249 1.1313335
0.11531214 0.1818521 1.1342728
0.12531452 0.18260023 1.1344708
0.13496999 0.18464503 1.1341178
0.14532596 0.18359968 1.1340557
0.15513781 0.18288912 1.1342779
0.16536723 0.18601844 1.134643
0.1748333 0.1853445 1.1351768
0.18466431 0.18356046 1.1345835
0.19450891 0.18206216 1.1340668
0.20484099 0.18285201 1.1348125
0.21336558 0.18625499 1.1351
0.22511844 0.1882412 1.1374286
0.2352905 0.18737215 1.1343334
0.24481134 0.18723483 1.1342499
0.25467905 0.18852828 1.138
0.26487166 0.18897676 1.138
0.27597025 0.18763134 1.1380001
0.28373754 0.18518665 1.137273
0.217481 0.19037899 1.1330001
0.22540407 0.19114983 1.1331668
0.23413117 0.19016895 1.1317501
0.24635923 0.19004294 1.131
0.25532711 0.19103783 1.1325001
0.26565036 0.19119368 1.132875
0.2749525 0.19147299 1.132875
0.28012553 0.19004293 1.131
-0.014392461 0.03844564 1.146
-0.014409397 0.042140383 1.1424446
-0.0046875244 0.043985754 1.1433334
0.0010038986 0.046913646 1.146
-0.0012725862 0.052375533 1.1420001
0.0010017962 0.054703891 1.1436001
0.35911182 0.058204323 1.146
0.36582601 0.055673134 1.1441053
0.37149626 0.058001168 1.1420001
-0.0020302464 0.067377232 1.1420001
0.0010027306 0.063778006 1.1446667
0.35372493 0.064074822 1.1433334
-0.0035475513 0.074786283 1.1432309
0.34998804 0.075140342 1.146
-0.0048497356 0.084647931 1.1437144
-0.0069678826 0.095300898 1.1440001
-0.010373585 0.10535162 1.1430001
-0.010391736 0.11455471 1.145
-0.012980034 0.12553589 1.1437144
-0.015694244 0.13549742 1.1440001
-0.016961683 0.14441469 1.1442223
-0.019456433 0.15476209 1.1420001
-0.017194644 0.16581565 1.1428573
-0.013286914 0.17260338 1.1420002
-0.0043055983 0.1755933 1.1433334
0.0044153063 0.17639393 1.1436669
0.012782875 0.17815773 1.1453334
0.036157049 0.17819086 1.1448572
0.045193862 0.178313 1.1444
0.051184628 0.17901456 1.146
0.066010751 0.17901456 1.146
0.075395465 0.17723231 1.1442223
0.085018173 0.17459413 1.1432309
0.095791906 0.17395866 1.1438181
0.10441237 0.1742523 1.1444
0.11424851 0.17695782 1.1436667
0.12531525 0.17788549 1.146
0.13375473 0.17856294 1.146
0.14540884 0.178313 1.1444001
0.15440316 0.17795755 1.1454285
0.16181032 0.17901456 1.146
0.17663644 0.17901456 1.146
0.18576021 0.17901456 1.146
0.19545422 0.17901456 1.146
0.20568691 0.17843798 1.1452
0.21199104 0.17901456 1.146
0.017496305 0.18136074 1.143
0.0244294 0.18196596 1.1442858
0.030549144 0.18064 1.1420001
0.055551939 0.18064001 1.1420001
0.060097896 0.18064 1.1420001
0.13624276 0.18064 1.1420001
0.1430617 0.18064 1.1420001
0.16530445 0.1816044 1.1420002
0.17569022 0.18121658 1.1428002
0.18329345 0.18109004 1.1420001
0.21659072 0.18291648 1.1434547
0.22527786 0.18452021 1.1435386
0.23502688 0.18323177 1.1431431
0.24495959 0.18350032 1.1445456
0.25520059 0.18552722 1.1444
0.26413503 0.18610652 1.1441818
0.27469292 0.18446779 1.1441818
0.28436536 0.18101504 1.1420002
-0.0081978096 0.022286037 1.1570001
-0.024170537 0.034614298 1.1500001
-0.013056896 0.036245786 1.1504287
-0.0050369743 0.037168358 1.1526365
0.0039694104 0.0383492 1.1552857
-0.001281501 0.04141235 1.1500001
0.0049467115 0.04458575 1.1525713
0.35563391 0.046400819 1.1562728
0.36285633 0.046827514 1.1558573
0.0050258283 0.054543134 1.1521666
0.010224879 0.050783668 1.1570001
0.34809515 0.055573598 1.1565557
0.3547222 0.054977201 1.1533749
0.3620002 0.052742433 1.1500002
0.0040719775 0.06575007 1.1528889
0.34874177 0.063322626 1.1570001
0.35210517 0.064735226 1.1536999
-0.001281501 0.079934649 1.1500001
0.0031333435 0.074904092 1.1530768
0.34874177 0.074721679 1.1570001
0.35111061 0.072950497 1.1542001
-0.001740619 0.086371176 1.1512001
0.0024500601 0.08398097 1.155
-0.0030011537 0.094828874 1.152
0.0010135346 0.091820255 1.1570001
-0.0047889012 0.10485579 1.1528822
-0.0063317134 0.11470383 1.1532999
-0.010437116 0.12525499 1.1500001
-0.0074090878 0.1237812 1.1538334
-0.011469532 0.13501729 1.1516666
-0.0081978096 0.13513665 1.1570001
-0.01197884 0.14510423 1.1516666
-0.008190725 0.14527112 1.156
-0.014075345 0.15479895 1.1524209
-0.0081978096 0.15337515 1.1570001
-0.012133104 0.16444723 1.1532726
-0.0054287384 0.16876076 1.1562001
0.0044600656 0.1690411 1.155
0.014830551 0.1693338 1.1570001
0.025193311 0.1693338 1.1570001
0.033253241 0.1693338 1.1570001
0.045918837 0.1693338 1.1570001
0.056281596 0.1693338 1.1570001
0.086218469 0.1693338 1.1570001
0.09516269 0.16886547 1.1537999
0.10542683 0.16874838 1.153
0.11460634 0.16874838 1.153
0.12411088 0.16918746 1.156
0.20481452 0.1693338 1.1570001
0.21402587 0.1693338 1.1570001
-0.010437116 0.17057535 1.1500001
-0.0047203195 0.17200576 1.152
0.0044465503 0.17193082 1.1515
0.015367779 0.174182 1.1517893
0.025084242 0.17540757 1.152
0.034044802 0.1741267 1.1525333
0.044849932 0.1739876 1.152611
0.05510487 0.17527165 1.1526841
0.064367555 0.17516327 1.1528889
0.074954666 0.17379427 1.1530001
0.083983496 0.17172623 1.1526667
0.094852448 0.17057537 1.1500001
0.10583919 0.17102855 1.1500001
0.11494602 0.17265633 1.1518
0.12485486 0.17317952 1.1522666
0.13544999 0.17414489 1.1526666
0.14506978 0.1751703 1.1523124
0.15568417 0.17465244 1.1529999
0.16540241 0.17648029 1.1533076
0.17413692 0.17743368 1.1526922
0.18443094 0.17713511 1.1541537
0.19523536 0.17568921 1.153857
0.20492579 0.17417333 1.1525261
0.21567148 0.17492026 1.1521109
0.22348578 0.17627545 1.1546999
0.2347514 0.17845304 1.1570001
0.24534342 0.17723414 1.1556666
0.25478607 0.1779971 1.1570001
0.26468825 0.17845304 1.1570001
0.27044535 0.17845304 1.1570001
0.28703552 0.17703277 1.1552
0.29283845 0.17616598 1.1544999
0.22658817 0.18082699 1.1518
0.23508723 0.18010803 1.153
0.24597314 0.1804675 1.1523999
0.25511178 0.18141307 1.1511999
0.26546663 0.18182711 1.1524
0.27467677 0.18154573 1.1535
0.28327966 0.18010804 1.1530001
-0.012354596 0.0253965 1.169
-0.0067316871 0.026740184 1.169
-0.0039114775 0.032234576 1.1665
0.0044962927 0.033912491 1.1650002
0.012806987 0.035460275 1.1672857
0.34537864 0.0397931 1.169
0.35352215 0.0397931 1.169
0.012608815 0.045355927 1.1640002
0.33540696 0.048019733 1.1690001
0.34501967 0.046344619 1.1668825
0.35230693 0.043787394 1.165
0.0079631247 0.056778077 1.1630001
0.012376832 0.054536551 1.1667778
0.33665341 0.051886246 1.169
0.34398696 0.054656938 1.1652354
0.0079713417 0.064863682 1.1642001
0.011494287 0.060524203 1.169
0.34658155 0.065474473 1.1664737
0.0079631247 0.075107194 1.163
0.34695578 0.075047269 1.1665001
0.0063172868 0.0848286 1.1638572
0.346542 0.081255302 1.169
0.35119542 0.082407035 1.169
-0.0012937589 0.099000774 1.161
0.0035415813 0.09510532 1.1670001
0.0021856548 0.10526118 1.1670001
-0.0022860109 0.11518445 1.1627145
0.0017984521 0.11184122 1.1676668
-0.0029802439 0.12563448 1.165
0.0010240467 0.12732443 1.169
-0.0036133658 0.13496286 1.1653334
0.0010240466 0.13538651 1.169
-0.0045498922 0.1445813 1.1670001
-0.0044461265 0.15577225 1.1664286
0.002769087 0.15899694 1.169
-0.0045428863 0.16453248 1.1650002
0.0045001134 0.16483003 1.1655002
0.014801987 0.16576454 1.166
0.025401667 0.16727492 1.1665001
0.035067331 0.16763203 1.1663333
0.044562425 0.16729669 1.1666667
0.055168152 0.16756785 1.1658888
0.06490846 0.16739903 1.1658002
0.074188873 0.16846527 1.1653638
0.083708189 0.16861938 1.1678572
0.095461592 0.16693099 1.1667777
0.10492082 0.16579373 1.1652666
0.11556385 0.16491629 1.1634001
0.12487687 0.16627397 1.166091
0.13401265 0.16903408 1.1654445
0.14593501 0.16935293 1.1650001
0.15691431 0.16878663 1.169
0.1652905 0.16832595 1.169
0.17087463 0.16878663 1.169
0.19974563 0.16991924 1.161
0.20674105 0.1679794 1.1666001
0.21518962 0.16718607 1.1667778
0.22430822 0.16827051 1.1672223
0.28986672 0.16991924 1.161
0.29517004 0.1695417 1.1636667
0.30466104 0.16878663 1.169
0.068030164 0.17220692 1.161
0.0740899 0.17186648 1.1618
0.14273134 0.17118557 1.1634001
0.15495154 0.1713558 1.163
0.16519225 0.17187344 1.1634001
0.17574148 0.17226604 1.164
0.18562131 0.1725333 1.1646365
0.19417399 0.17196651 1.1645555
0.22759177 0.17352304 1.1632859
0.23466206 0.17531084 1.1664546
0.24594671 0.1739102 1.1673334
0.25590965 0.17391099 1.1663334
0.26545864 0.17425658 1.166647
0.27527893 0.17525578 1.1661114
0.28394836 0.17387034 1.1640588
0.29636973 0.1716395 1.1623335
0.30097777 0.17237665 1.166
0.28917617 0.019192446 1.177
-0.010645857 0.028372573 1.1730001
-0.0036427043 0.027465811 1.1738001
0.0043771872 0.027461553 1.1764287
0.015067685 0.027563335 1.1755002
0.29519743 0.028372573 1.1730001
0.0056969142 0.03068391 1.1730001
0.017603789 0.034382053 1.1730002
0.022114841 0.034267373 1.177
0.3395564 0.03992926 1.1730001
0.34439191 0.038663473 1.1747146
0.35122979 0.03992926 1.1730001
0.018711278 0.045165975 1.1756668
0.022114841 0.040065423 1.177
0.32822022 0.048569229 1.177
0.3347992 0.043674365 1.1743335
0.34305841 0.042240597 1.1730001
0.017012153 0.054659456 1.1750001
0.32618374 0.055285789 1.1760001
0.33415744 0.055675238 1.1730002
0.34189108 0.058419961 1.1730001
0.01184269 0.065436557 1.1745001
0.32716808 0.062896714 1.1764287
0.33575165 0.064392664 1.1744002
0.34255812 0.06568417 1.1730002
0.010366278 0.075754985 1.1730001
0.33707324 0.072221145 1.1761112
0.34218055 0.076977208 1.1740001
0.0080315955 0.088467345 1.1730001
0.010383951 0.085149206 1.1750001
0.34444383 0.085309058 1.1752501
0.0080407253 0.093198463 1.1743335
0.010401626 0.091088243 1.177
0.34282276 0.092985071 1.1746001
0.0057046851 0.10479418 1.1746
0.0033710587 0.11576721 1.1752858
0.002589738 0.12373259 1.1750001
0.0040364731 0.13522452 1.1747144
-0.0013071311 0.14625078 1.1730001
0.0014988825 0.14479755 1.1762002
-0.001307131 0.15202913 1.1730001
0.0041494831 0.15578897 1.1752224
0.010401626 0.15834561 1.177
0.11816321 0.15834561 1.177
0.0080315955 0.16011882 1.1730001
0.015319605 0.16138874 1.1747779
0.025135342 0.16327935 1.1758002
0.034975588 0.16333555 1.1762002
0.043897066 0.16293138 1.1747779
0.054818537 0.16386278 1.1750002
0.065026894 0.16289042 1.1763334
0.074697167 0.16444159 1.1750001
0.08521916 0.16617805 1.1750002
0.094801225 0.1631518 1.175182
0.10524156 0.1613434 1.1747144
0.1139246 0.16134341 1.1747146
0.12552087 0.16196392 1.1752224
0.13546295 0.1643938 1.1746669
0.14444055 0.16704659 1.174778
0.15476616 0.16672963 1.175182
0.16475971 0.16504578 1.175182
0.17525965 0.16791449 1.1750001
0.18503964 0.16813891 1.1752224
0.19406995 0.16814747 1.1742002
0.20291196 0.16805792 1.1760001
0.21672678 0.16415086 1.1754001
0.22546251 0.16426964 1.1746001
0.2346669 0.16889852 1.1762002
0.24857032 0.16916864 1.177
0.25503442 0.16642846 1.1751336
0.26387432 0.16612805 1.1741767
0.27506152 0.16856551 1.1755
0.28541291 0.16870025 1.1752858
0.295259 0.16762702 1.1740911
0.30445489 0.16553925 1.1754001
0.31143126 0.16414365 1.177
0.2368304 0.17260005 1.1730002
0.24287298 0.17297752 1.174
0.27651998 0.1716755 1.1730001
0.28352404 0.1716755 1.1730001
-0.013069068 0.028566077 1.1810001
-0.0024924623 0.022766599 1.1820002
0.0047108703 0.023220032 1.1854445
0.015178259 0.023392994 1.1843336
0.023771424 0.026066346 1.1865001
0.28896907 0.022511942 1.189
0.29301804 0.02527646 1.1841112
0.30426252 0.028566077 1.1810001
0.31697297 0.028759582 1.189
-0.0115141 0.031706385 1.1823335
-0.0083678588 0.030893179 1.1810001
0.025848545 0.034558516 1.187
0.296929 0.034284946 1.1855333
0.30445457 0.034719598 1.183154
0.31438115 0.034777611 1.1856667
0.32444578 0.034655854 1.1854999
0.3352676 0.03604297 1.1846668
0.34440869 0.035217103 1.1830001
0.35245475 0.037141543 1.1823335
0.023578124 0.045528349 1.1850001
0.29711425 0.044526558 1.1876669
0.30457553 0.045080811 1.1867999
0.31472731 0.045007709 1.1849998
0.32405707 0.044610832 1.181
0.33105943 0.042063266 1.1810001
0.019251743 0.057073064 1.1810001
0.022738462 0.054814637 1.1850001
0.29804075 0.052188229 1.189
0.30595949 0.055432193 1.1890001
0.31509477 0.055581313 1.1863999
0.32218587 0.05503685 1.1810001
0.017743072 0.065096013 1.1835457
0.022321522 0.065022208 1.188
0.30656025 0.064371124 1.189
0.31525812 0.064833276 1.1879473
0.32347393 0.06556531 1.183154
0.33129448 0.068126798 1.1810001
0.016154656 0.074478507 1.1840588
0.30869013 0.070931144 1.189
0.31602636 0.073742591 1.189
0.32437727 0.07424508 1.1858
0.33448517 0.07567475 1.1826003
0.015379117 0.084184967 1.1853079
0.31720963 0.082176901 1.189
0.32476485 0.084616363 1.1864998
0.33515811 0.084956214 1.1840909
0.34127188 0.086890504 1.1830001
0.0080863722 0.098379113 1.1810001
0.012244236 0.095795557 1.1850001
0.32762235 0.094359793 1.189
0.3359386 0.095095642 1.185842
0.34362447 0.098545715 1.1830001
0.0081069134 0.10446057 1.184
0.011673264 0.10472623 1.187
0.32951555 0.1046684 1.189
0.33607423 0.104568 1.189
0.34400016 0.10414644 1.187
0.0074225967 0.1157805 1.182143
0.011539827 0.11470917 1.1867778
0.32998887 0.11075985 1.189
0.33641231 0.11209864 1.189
0.34261036 0.11154081 1.189
0.0069281873 0.12540716 1.1835001
0.011849877 0.12402881 1.1878573
0.0073393555 0.13428065 1.1863334
0.010507676 0.13653135 1.189
0.0057506086 0.14544836 1.1834
0.011099308 0.14648853 1.189
0.0060471487 0.15257919 1.184
0.0152872 0.15469894 1.184652
0.025580227 0.15547596 1.184294
0.034894019 0.15719773 1.1842729
0.044616476 0.15805258 1.1835001
0.054657273 0.15808514 1.182778
0.065170646 0.15794528 1.1836668
0.075332887 0.15825438 1.1850001
0.084767148 0.15825438 1.1850001
0.095111057 0.1579655 1.1846002
0.10529977 0.15806399 1.1845556
0.11528388 0.15746784 1.1835001
0.12510023 0.15614553 1.1850001
0.13405752 0.15652831 1.1858573
0.14391471 0.15845321 1.1865001
0.15460217 0.15852028 1.1870002
0.1650295 0.15832068 1.1855001
0.17261478 0.15996 1.189
0.1935191 0.15996 1.189
0.2160289 0.15852214 1.187
0.22517881 0.15783669 1.1842728
0.2351027 0.15813278 1.1878573
0.24462597 0.15868172 1.1882001
0.25447696 0.15818711 1.1845001
0.26487315 0.15850194 1.185889
0.27488258 0.15862124 1.189
0.28492737 0.15873475 1.1886001
0.29530069 0.15858679 1.1875001
0.30462706 0.15851951 1.187
0.31364742 0.15872529 1.1872858
0.32052276 0.15878856 1.189
0.028066508 0.16121085 1.1810001
0.035118323 0.16121085 1.1810001
0.046871345 0.16121085 1.1810001
0.055098463 0.16121085 1.1810001
0.066067949 0.16121086 1.1810001
0.075783782 0.16167627 1.1810001
0.084515281 0.16244265 1.1815001
0.092708133 0.16121086 1.1810001
0.13560668 0.16121085 1.1810001
0.14620766 0.16300493 1.1827779
0.15460686 0.16287005 1.1825001
0.16416653 0.16167627 1.1810001
0.17524977 0.16377456 1.1842728
0.18470709 0.16426602 1.1846002
0.19558661 0.1638359 1.186
0.20533009 0.16547853 1.1866001
0.21437402 0.16338746 1.1836668
0.22551729 0.16121085 1.1810001
0.23597448 0.16405368 1.1833334
0.24514614 0.16525587 1.1850001
0.25374949 0.16258013 1.1825001
0.26746827 0.16192913 1.182
0.27579665 0.16427761 1.1837693
0.2850379 0.16427822 1.1837696
0.29469997 0.16339055 1.1825386
0.30639446 0.16207755 1.1816669
0.31452018 0.16192912 1.1820002
0.24314682 0.17051926 1.1810001
0.0070046997 0.018339258 1.197
0.014738454 0.016952518 1.1963336
0.02319864 0.017625144 1.1966002
0.0281044 0.024491148 1.1950001
0.032020427 0.025415141 1.197
0.28817868 0.025633235 1.1962001
0.29184911 0.028105002 1.1943334
-0.013246126 0.033670343 1.197
0.029637976 0.034849659 1.197
0.032020427 0.033670343 1.197
0.2887294 0.036028974 1.197
0.29265302 0.034818571 1.1960001
0.34297141 0.033557825 1.1930001
0.027695585 0.04352054 1.1954001
0.28932503 0.044284172 1.197
0.29302222 0.04466553 1.1946
0.026330937 0.055710733 1.1955001
0.28932503 0.050180741 1.197
0.29438785 0.055198945 1.1950003
0.30141789 0.057065301 1.1930001
0.025639519 0.064655267 1.1956668
0.29571325 0.064429678 1.1948184
0.30236766 0.06599813 1.193
0.022415468 0.074695885 1.1930001
0.29885483 0.071408391 1.197
0.30566001 0.073686838 1.1956667
0.3126595 0.076229692 1.1939999
0.017666491 0.088800371 1.1930001
0.021032685 0.084035352 1.1954001
0.30838463 0.080842905 1.197
0.314776 0.085018985 1.1941429
0.32160103 0.089975744 1.1930001
0.016674239 0.09582188 1.1947144
0.31632614 0.093029164 1.197
0.32335991 0.096322849 1.1954618
0.33109897 0.099378727 1.1930001
0.016120335 0.1054935 1.1956668
0.32474995 0.10511611 1.1953532
0.33584797 0.10760634 1.1930001
0.016364327 0.11554845 1.197
0.32815039 0.11375613 1.1958573
0.33527765 0.11622705 1.1948181
0.014383226 0.12556972 1.1962001
0.3345916 0.12565684 1.197
0.011751926 0.13565055 1.1950002
0.32982668 0.13627067 1.197
0.33220914 0.13155341 1.197
0.0081685362 0.14169216 1.1930001
0.014295202 0.14559317 1.1947144
0.025231246 0.14860067 1.1950002
0.034402877 0.14924315 1.197
0.1256579 0.14876691 1.1963334
0.13471441 0.14829068 1.1956668
0.14280435 0.14924313 1.197
0.23691113 0.14924313 1.197
0.017666491 0.15109515 1.1930001
0.027164448 0.15109515 1.1930001
0.035923768 0.15288748 1.1947778
0.045099434 0.15387332 1.1963336
0.054122817 0.1542754 1.1958002
0.06431251 0.15464264 1.1950001
0.074529558 0.15523356 1.1964287
0.085924596 0.1553587 1.1956668
0.094463132 0.15467387 1.1947143
0.10397042 0.1558473 1.197
0.11585319 0.15465096 1.1955001
0.12418966 0.15157138 1.1936667
0.13607273 0.15196317 1.1936667
0.14502707 0.15378694 1.1956667
0.1547166 0.1551397 1.197
0.16397196 0.15487851 1.1950002
0.17407715 0.15740997 1.1963334
0.18608555 0.15867767 1.197
0.19456589 0.15814739 1.1930001
0.20440197 0.15841252 1.1950001
0.21446715 0.15587264 1.1954001
0.22530472 0.15372439 1.195182
0.23511073 0.15341642 1.1944548
0.24473898 0.1548142 1.1945
0.25486088 0.15549061 1.1936667
0.26443958 0.15474735 1.1952858
0.27434966 0.15564513 1.197
0.28503221 0.15592724 1.194
0.29478779 0.15605783 1.1950001
0.30430168 0.15605783 1.1950001
0.31531793 0.1566847 1.1962001
0.32300335 0.15559877 1.1960001
0.17794448 0.16049814 1.1930001
0.1851707 0.16137141 1.1936667
0.19575314 0.16049814 1.1930001
0.20445961 0.16128173 1.1930001
0.21118733 0.16167352 1.1930001
0.015436983 0.0077706072 1.204
0.020259364 0.0077835154 1.2060001
0.0058377581 0.014863141 1.202
0.013698507 0.011817953 1.2020001
0.025739895 0.013417196 1.2032307
0.033025637 0.018851466 1.2046667
0.28189898 0.019665329 1.2060001
0.03507423 0.025555277 1.2036
0.26709676 0.028378658 1.2060002
0.27607629 0.025837949 1.2057335
0.2841067 0.025695704 1.2022856
-0.015693858 0.032626748 1.202
0.034891728 0.034445301 1.2035
0.26771504 0.035435732 1.2060003
0.27543753 0.035051487 1.204
0.28431335 0.034758382 1.202
0.29053357 0.033810988 1.202
0.029761776 0.045653395 1.202
0.032261185 0.043428954 1.2060001
0.26886845 0.044107918 1.2060002
0.27572474 0.04459111 1.20525
0.28455257 0.044469148 1.2019999
0.029811297 0.05403677 1.204
0.26989716 0.050558042 1.2060001
0.27589804 0.054122582 1.2060001
0.28513274 0.054663446 1.2033333
0.29053357 0.056311555 1.202
0.029030338 0.065136679 1.2046669
0.27829844 0.060063489 1.2060001
0.28531614 0.065070957 1.2055295
0.29266015 0.066969715 1.202
0.026218712 0.075384624 1.2040001
0.28696644 0.074585706 1.2060002
0.29466954 0.075401999 1.2042499
0.30279464 0.077331826 1.202
0.025029916 0.084911034 1.2045001
0.28829992 0.082242876 1.2060001
0.29561535 0.084675819 1.2060002
0.30463615 0.084920317 1.2019999
0.31286266 0.087496549 1.202
0.022103915 0.093492545 1.2046667
0.28910005 0.092144385 1.2060001
0.2955626 0.093880959 1.2060003
0.30503824 0.094255649 1.2025999
0.31392592 0.09512832 1.202
0.017799767 0.10604965 1.202
0.020906786 0.10467549 1.2037144
0.3058382 0.10400537 1.2057501
0.31495857 0.10516621 1.2031665
0.32243228 0.1064444 1.202
0.017799767 0.11197085 1.202
0.02101469 0.11644384 1.2033335
0.30830297 0.11630408 1.2060001
0.31473589 0.11556073 1.2051111
0.32422507 0.11652357 1.2033334
0.017814575 0.12510444 1.2030001
0.020842656 0.12353015 1.205
0.30782291 0.12612638 1.2060002
0.31430387 0.12541346 1.2060001
0.32488671 0.1253303 1.2052
0.33335757 0.12428695 1.202
0.34077403 0.12144477 1.202
0.013829522 0.13343239 1.2033334
0.30750287 0.13214651 1.2060001
0.31506765 0.13373072 1.2060003
0.32450768 0.1346726 1.2038
0.33120441 0.13210292 1.202
0.016204834 0.14591907 1.202
0.024719501 0.1462359 1.2024446
0.036154289 0.14676222 1.2024444
0.04550539 0.14688921 1.2025714
0.054494437 0.14821559 1.2040001
0.061727982 0.14924067 1.2033334
0.074144371 0.14892772 1.204
0.095552832 0.14986654 1.202
0.11828065 0.1486823 1.202
0.12431186 0.1463742 1.2025001
0.13542619 0.14591907 1.2020001
0.14590469 0.14707236 1.2038181
0.15487605 0.14818591 1.2048572
0.16548133 0.14798892 1.2060001
0.19308552 0.14798892 1.2060001
0.21588896 0.14798892 1.2060001
0.22617324 0.14808673 1.2046667
0.2345009 0.14839599 1.2045001
0.24322662 0.14861479 1.2046669
0.25469488 0.14798892 1.2060001
0.26580217 0.14802071 1.2046669
0.27506819 0.14845832 1.205
0.29510099 0.14798892 1.2060001
0.30230206 0.14798892 1.2060001
0.31640419 0.14531551 1.2060002
0.32493806 0.14474526 1.2041817
0.33175552 0.14300258 1.204
0.057274397 0.15223502 1.202
0.066215262 0.15148713 1.2036
0.074641146 0.15211153 1.2037144
0.084570281 0.15214041 1.204154
0.095658824 0.15161178 1.2033335
0.10518343 0.15277788 1.2042223
0.11365772 0.15244991 1.2037144
0.15593526 0.15161178 1.2033335
0.16520691 0.15130015 1.2040001
0.17503949 0.15414105 1.2034546
0.18472177 0.15485738 1.2040001
0.19422203 0.15408351 1.2037499
0.20505191 0.15352394 1.2043157
0.21509245 0.15166719 1.2037779
0.2221967 0.15161178 1.2033334
0.24611104 0.15143371 1.2037144
0.25546557 0.15224713 1.2038182
0.26438981 0.15186107 1.2028
0.27542046 0.1521381 1.2033334
0.28486824 0.15240125 1.2033334
0.29444844 0.15240127 1.2033334
0.3050524 0.15265527 1.2040001
0.31520385 0.15240127 1.2033334
0.32397127 0.15219438 1.2037779
0.027756462 -0.001740496 1.2190001
0.017918235 0.0054250872 1.21
0.025235809 0.0054398575 1.2142223
0.034121603 0.0054553216 1.2172142
0.042313889 0.0078674173 1.2190001
0.028755696 0.010193576 1.21
0.036592614 0.014301655 1.2137059
0.042313889 0.015073352 1.2190001
0.24692664 0.019076651 1.2190001
0.25440753 0.017275169 1.219
0.26444459 0.017635014 1.2174616
0.27479547 0.017444734 1.2170769
0.28042561 0.019730553 1.21
0.039691322 0.025751907 1.2130001
0.042313889 0.025882255 1.2190001
0.23779935 0.025367547 1.2190001
0.24540825 0.026130082 1.2181666
0.25551537 0.02552617 1.2149999
0.26445925 0.024722753 1.2113334
0.27159509 0.022909544 1.21
0.038410809 0.036441647 1.2106668
0.042313889 0.033088189 1.2190001
0.24646543 0.034058928 1.2185454
0.2552194 0.035563216 1.2149473
0.26276457 0.034830764 1.21
0.036089223 0.044896279 1.2135
0.24805887 0.044377487 1.2190001
0.25520715 0.044992272 1.2161001
0.26393786 0.045040224 1.21
0.034720391 0.054881737 1.2155454
0.25612441 0.054389238 1.217889
0.26515171 0.054380871 1.21175
0.27079231 0.055494219 1.21
0.029959859 0.069799684 1.21
0.033976257 0.063077345 1.2182858
0.25768569 0.063035257 1.2175001
0.26536566 0.064282238 1.214353
0.27440375 0.064134292 1.2110667
0.28090724 0.066938594 1.21
0.03133392 0.076167278 1.2165002
0.2645573 0.073681645 1.2190001
0.27468529 0.074976481 1.2166001
0.28322145 0.076564446 1.2107273
0.027597073 0.087828413 1.2120001
0.031169463 0.085268065 1.2168573
0.26795402 0.089534685 1.2190001
0.27571493 0.085391119 1.2178462
0.28386822 0.08602149 1.2132354
0.29126307 0.087681517 1.21
0.026214382 0.096162416 1.2117144
0.031349394 0.095394522 1.2171251
0.277659 0.094338641 1.2190001
0.28367785 0.095121071 1.2136501
0.29246721 0.097456917 1.21
0.025677929 0.10457825 1.2124001
0.030667949 0.10490735 1.2190001
0.2857812 0.10501494 1.2174374
0.29546452 0.10448542 1.2134739
0.3023482 0.10744074 1.2110001
0.025374262 0.11423241 1.2113334
0.030991448 0.11475547 1.2190001
0.28805715 0.11321133 1.2190001
0.29577145 0.11439171 1.2176667
0.30434266 0.11507914 1.2125555
0.025018891 0.12599406 1.2135
0.030182701 0.12436338 1.2190001
0.2979787 0.12346264 1.219
0.3038587 0.12464759 1.2132002
0.016886098 0.13587731 1.21
0.024243573 0.13550605 1.2144119
0.034354348 0.13660826 1.2187222
0.046231337 0.13763604 1.2176363
0.055138297 0.13894682 1.2190001
0.065363146 0.13997623 1.2190001
0.13645193 0.13949585 1.2190001
0.14542902 0.13877526 1.219
0.15513395 0.13877524 1.219
0.16483891 0.13997623 1.2190001
0.17333074 0.13997623 1.2190001
0.20123248 0.13997623 1.2190001
0.21215054 0.13997623 1.2190001
0.22428173 0.13997623 1.2190001
0.23156044 0.13997623 1.2190001
0.27523273 0.13997623 1.2190001
0.29728943 0.13691917 1.219
0.30423966 0.13550919 1.2129998
0.31366053 0.13798907 1.21
0.016714074 0.14251913 1.21
0.024643198 0.14285924 1.2117778
0.035375558 0.14264624 1.2122222
0.045260191 0.14227751 1.2113335
0.055882294 0.14362222 1.2133001
0.065388046 0.14524773 1.2149335
0.074892215 0.14634886 1.2161001
0.084873088 0.14745437 1.2146667
0.094256654 0.14692107 1.2135834
0.10557505 0.14694287 1.2134546
0.11510112 0.14626426 1.2147501
0.1266406 0.14418103 1.2180001
0.13539052 0.1432229 1.2160001
0.14492147 0.1430769 1.2147501
0.15513203 0.14384493 1.2152001
0.1644682 0.14482854 1.2137144
0.17408943 0.14639555 1.2158334
0.18543614 0.14780086 1.2153335
0.19483003 0.14632086 1.2139
0.20470507 0.14520891 1.2148334
0.21462417 0.14490548 1.2143571
0.22410534 0.1444682 1.2147501
0.23492277 0.14404954 1.2147274
0.24514899 0.14499031 1.2150714
0.2545583 0.14553265 1.2153
0.26451683 0.14452669 1.214375
0.27492303 0.14404953 1.2147273
0.28485525 0.1452821 1.2149999
0.29483497 0.14509946 1.2129375
0.30512267 0.14425093 1.2105335
0.31291783 0.14402896 1.2104445
0.10823041 0.15086398 1.21
0.11184289 0.15086398 1.21
0.17686765 0.15086398 1.21
0.18409263 0.15086398 1.21
0.19613425 0.15086398 1.21
0.032754261 -0.0025513978 1.2243335
0.035789423 0.0012666606 1.2240001
0.043970387 0.0059725191 1.2246002
0.22453254 0.0079190489 1.2270001
0.23460072 0.0074988818 1.2243335
0.24570838 0.0078932336 1.223
0.25422806 0.0078932336 1.223
0.27613583 0.0078932336 1.223
0.046003196 0.014597406 1.223889
0.22763209 0.016536333 1.2258574
0.23540875 0.014820452 1.2242172
0.24535042 0.014414033 1.2229998
0.25574943 0.011809257 1.223
0.26518196 0.011909667 1.223
0.27491874 0.011508024 1.223
0.044980682 0.024812872 1.2255001
0.21842715 0.022425501 1.2270001
0.2255049 0.02447048 1.2256666
0.23361257 0.026699821 1.2234
0.043970387 0.035894196 1.2246002
0.22656769 0.0337083 1.2270002
0.23504996 0.035251796 1.2245555
0.24321228 0.037862677 1.2235715
0.040727243 0.045358039 1.2260002
0.23661272 0.044967081 1.2263335
0.24367565 0.045732871 1.2236154
0.037584338 0.051270716 1.223
0.040898036 0.055779204 1.2250001
0.23796444 0.051438402 1.2270001
0.24476676 0.054948922 1.2243998
0.25179386 0.057295367 1.223
0.036610659 0.066211849 1.223
0.040919848 0.063862354 1.2256668
0.24516417 0.064700268 1.2251052
0.25368714 0.065462112 1.223
0.035598699 0.073165119 1.2264287
0.24751166 0.073946394 1.2248182
0.25544518 0.074164391 1.2229998
0.26153064 0.077779181 1.223
0.03462781 0.084608912 1.2260002
0.24854636 0.080320179 1.2250001
0.25532672 0.084489711 1.2241998
0.26498979 0.084755093 1.2229998
0.27224112 0.086454682 1.223
0.25701636 0.094653755 1.2256669
0.26518196 0.095853142 1.2229998
0.27407616 0.096131198 1.2229999
0.032715939 0.10589422 1.223
0.25945541 0.10511228 1.2270001
0.26604927 0.10583758 1.227
0.27553421 0.10573003 1.22575
0.28100425 0.10549258 1.223
0.032769442 0.11532621 1.2250001
0.25994387 0.11188196 1.2270001
0.26657259 0.11516318 1.2270001
0.27514061 0.11522615 1.2239999
0.28364128 0.11573448 1.2229999
0.29195815 0.1187468 1.223
0.033808436 0.12546444 1.2247145
0.26808441 0.12316477 1.2270002
0.27542233 0.12500371 1.2252499
0.28506061 0.1249522 1.2247499
0.29361647 0.12547825 1.224
0.03566156 0.13184561 1.2238001
0.0447331 0.13252483 1.2248183
0.055947702 0.13406126 1.2253335
0.06514623 0.137183 1.2247145
0.074339673 0.13847712 1.2270001
0.11097208 0.13847712 1.2270001
0.12684613 0.13847712 1.2270001
0.13483821 0.13611104 1.2256669
0.14512022 0.13386063 1.2246001
0.15502618 0.13324887 1.225
0.1657656 0.13548027 1.2251539
0.17546184 0.13636313 1.2254002
0.18539344 0.13671482 1.2256669
0.19522664 0.1376712 1.2270002
0.20429121 0.13666466 1.2252223
0.21371913 0.13752073 1.2256668
0.22453254 0.13847712 1.2270001
0.23430119 0.13847712 1.2270001
0.24542741 0.13792369 1.2256668
0.25383848 0.13847712 1.2270001
0.26971251 0.1348505 1.2270001
0.27564859 0.13476586 1.2262501
0.28506112 0.13460003 1.2247499
0.29388332 0.13382851 1.2236154
0.075378992 0.14175628 1.224
0.085190304 0.14368048 1.2250001
0.09548907 0.14276586 1.2252859
0.10469575 0.14307703 1.2250001
0.11444847 0.14187014 1.2250001
0.124149 0.14181273 1.2245002
0.1300839 0.14043555 1.223
0.17668144 0.14250116 1.2230002
0.18485337 0.14284541 1.2229999
0.19472541 0.1423099 1.223
0.20676118 0.14043555 1.223
0.21446949 0.14043555 1.223
0.22501767 0.14043555 1.223
0.23718868 0.14043555 1.223
0.24570838 0.14043555 1.223
0.25620776 0.14159958 1.2241429
0.2649059 0.14159958 1.2241429
0.27451307 0.14043555 1.223
0.28465554 0.14043555 1.223
0.29074106 0.14043555 1.223
0.035448458 -0.0045970958 1.2333335
0.04430975 -0.0028085443 1.2360001
0.050284214 -0.0017647687 1.2360001
0.044910744 0.0021857831 1.2320002
0.051292039 0.0037957835 1.2348573
0.19346051 0.0074900403 1.2360001
0.20477684 0.0074900403 1.2360001
0.21440585 0.0064193332 1.2345456
0.050646044 0.013298767 1.2328001
0.19444455 0.013822281 1.2360002
0.2040388 0.014065827 1.2360001
0.21472268 0.014040197 1.2338002
0.22444439 0.013247888 1.2320004
0.047669373 0.027372073 1.2320001
0.050219119 0.024997801 1.2344002
0.19592059 0.021128705 1.2360001
0.20509316 0.023981692 1.2360001
0.21449441 0.025080686 1.2336669
0.22176935 0.02858587 1.2320001
0.047240853 0.036646668 1.2336
0.050284214 0.032331895 1.2360001
0.20690893 0.035173286 1.2360001
0.21472149 0.035920467 1.2338003
0.22422147 0.037082449 1.2320002
0.2315778 0.039510045 1.2320001
0.044678628 0.045653019 1.2340001
0.21423058 0.045205127 1.2360001
0.22491224 0.045720212 1.2358001
0.23239516 0.045983627 1.2320002
0.044471964 0.054565366 1.2340001
0.2159292 0.053439356 1.2360001
0.22520839 0.055276643 1.2360001
0.23521127 0.055580035 1.2330669
0.045255952 0.065050572 1.2330002
0.22833204 0.064297512 1.2360001
0.23549142 0.065066472 1.2332501
0.24138625 0.063785985 1.2320001
0.037860923 0.077137753 1.2320001
0.042825654 0.074812219 1.2336669
0.23758748 0.074419484 1.2352002
0.24302098 0.075114764 1.2320002
0.037370503 0.085148811 1.2320002
0.042069424 0.084529318 1.2355556
0.23921786 0.08396399 1.2360001
0.24545361 0.084884681 1.2352002
0.25119469 0.088061929 1.2320001
0.03669633 0.094283722 1.2340001
0.041673958 0.09078332 1.2360001
0.24671164 0.09415552 1.2360001
0.25293118 0.095119625 1.2330002
0.036160961 0.10554806 1.2337145
0.24832015 0.1029607 1.2360001
0.25492454 0.10498961 1.2330003
0.03669633 0.1149498 1.2340001
0.041427951 0.11513808 1.2360001
0.24955018 0.11026713 1.2360001
0.2550503 0.11430973 1.2345717
0.2622292 0.11719306 1.2320001
0.037493214 0.12420201 1.2333335
0.043185193 0.12571473 1.2346667
0.053974327 0.12975094 1.2360001
0.12900656 0.1285332 1.2360001
0.13510258 0.1284807 1.2355001
0.14433582 0.1285872 1.2348573
0.15483734 0.12975094 1.2360001
0.16467765 0.12975094 1.2360001
0.17205785 0.1285332 1.2360001
0.25782496 0.12443716 1.2360001
0.26441428 0.12615398 1.2348573
0.27081159 0.12933102 1.2320001
0.059929933 0.13175863 1.2320001
0.066518337 0.1334721 1.2328891
0.075891562 0.13530591 1.234182
0.085838377 0.13686994 1.2343335
0.095855311 0.13581549 1.2336003
0.10546495 0.13561589 1.2340002
0.11561538 0.13594823 1.2344617
0.12467478 0.13500261 1.2331431
0.13398373 0.13224415 1.2320002
0.14207569 0.13175863 1.2320001
0.16414471 0.13175863 1.2320001
0.17477053 0.13256782 1.2320002
0.18497831 0.13304348 1.2342858
0.19569342 0.13367972 1.2334547
0.20493869 0.13318829 1.2340001
0.21516845 0.13521326 1.2340002
0.22517082 0.13550718 1.2342224
0.23563786 0.13561785 1.2340001
0.24573286 0.13474464 1.2346667
0.2561059 0.1353052 1.234182
0.26500058 0.1355634 1.2335002
0.084451064 0.141469 1.2320001
0.095485568 0.141469 1.2320001
0.10284191 0.141469 1.2320001
0.03838335 -0.011627697 1.2490001
0.043769568 -0.012448061 1.2490001
0.037424188 -0.0083203502 1.2446668
0.044198707 -0.0074838805 1.2416666
0.054630764 -0.0057091792 1.2452668
0.14776509 -0.0017833302 1.2490001
0.15439428 -0.0034240582 1.2490002
0.16392374 -0.0037522037 1.2490002
0.17262457 -0.0030138763 1.2490001
0.18381134 -0.0017833302 1.2490001
0.1949981 -0.0017833302 1.2490001
0.056330103 0.0047557834 1.2426666
0.14776509 0.00067776162 1.2490001
0.15397994 0.0043694004 1.2490003
0.16425726 0.0045850365 1.2487651
0.17455229 0.0044314908 1.247118
0.1848437 0.0040717148 1.243889
0.19566484 0.0028985254 1.2431818
0.20412183 0.0031167783 1.2409999
0.055534985 0.014395502 1.2433
0.15484047 0.013929794 1.2490003
0.16505776 0.014204661 1.2482003
0.17569858 0.014162365 1.2443751
0.18495487 0.014111347 1.2399999
0.19112496 0.017776383 1.24
0.054793358 0.023579126 1.2452223
0.15770888 0.024058133 1.2490001
0.16455375 0.023776993 1.2485559
0.17482811 0.024023551 1.2470002
0.18470103 0.024217959 1.2429446
0.19425115 0.026409583 1.24
0.20223114 0.027549816 1.24
0.053343549 0.035223532 1.2450833
0.16466954 0.030703083 1.2490001
0.17333487 0.033550918 1.2490003
0.18534972 0.03280168 1.247667
0.19468121 0.036217082 1.2414117
0.20297153 0.036590233 1.2399999
0.047978915 0.047096681 1.24
0.052627798 0.045070108 1.2448
0.17386755 0.04005523 1.2490001
0.18754026 0.04005523 1.2490001
0.19519828 0.045579709 1.246778
0.20469916 0.045874991 1.2399999
0.21210325 0.049540035 1.24
0.047978912 0.055648427 1.24
0.051808756 0.055449706 1.2472857
0.19671455 0.055526234 1.2477694
0.20500493 0.055734422 1.2418749
0.21409668 0.056118306 1.24
0.22074138 0.059313465 1.24
0.047978912 0.067865215 1.24
0.050640188 0.065676644 1.24475
0.19890459 0.065369323 1.2490001
0.20593429 0.065819025 1.2475002
0.21516517 0.065607235 1.2434376
0.22341508 0.0660327 1.2399999
0.048027277 0.07527478 1.24125
0.05081309 0.076971605 1.2490001
0.20928216 0.074956588 1.2482001
0.21556452 0.075545713 1.2457502
0.22449905 0.075215161 1.2403125
0.23258796 0.075683966 1.2399999
0.04705384 0.085379876 1.2434287
0.20991379 0.083124332 1.2490001
0.21609238 0.084608831 1.247154
0.22499359 0.085181467 1.2430625
0.23406877 0.085213073 1.24
0.044217095 0.09606465 1.2439167
0.2182003 0.093378887 1.2490001
0.22580922 0.094973303 1.2462002
0.23448992 0.094814695 1.2409375
0.24154338 0.095265731 1.24
0.038106769 0.10207222 1.24
0.043931711 0.10529104 1.2450714
0.22815567 0.10431059 1.2485001
0.23532912 0.10497294 1.245375
0.24411292 0.10516169 1.2414286
0.045642734 0.11404888 1.2434546
0.052470393 0.11716944 1.2490001
0.12414856 0.11881017 1.2490001
0.13409236 0.11881017 1.2490001
0.14403616 0.11881017 1.2490001
0.15025103 0.11881017 1.2490001
0.22980137 0.11265744 1.2490001
0.23606011 0.11477411 1.2479336
0.24455258 0.11446306 1.2418749
0.25035781 0.11551069 1.24
0.046991698 0.1223521 1.24
0.054298371 0.12439507 1.2433749
0.064183995 0.12578312 1.2486926
0.074429601 0.127424 1.2490001
0.084550962 0.12759981 1.2490001
0.094696626 0.12696803 1.2485558
0.10419912 0.12488563 1.2482502
0.11404904 0.1251266 1.2482003
0.12485673 0.12449595 1.246316
0.1356443 0.12341072 1.2435455
0.14545575 0.12360807 1.244
0.15486418 0.12487753 1.2447144
0.16501242 0.12637743 1.2460001
0.17524646 0.125264 1.2447001
0.18417586 0.1267789 1.2478573
0.19416946 0.12824437 1.2490001
0.20245595 0.12865454 1.2490001
0.2235865 0.12865454 1.2490001
0.23691797 0.12628902 1.2472223
0.24483448 0.12439071 1.2433125
0.25260147 0.12439563 1.2399999
0.06408941 0.13030206 1.24125
0.074872054 0.13107941 1.244
0.084689848 0.1319015 1.2435555
0.094646536 0.13084051 1.2425001
0.1050286 0.13052076 1.2433333
0.11450931 0.1313352 1.2433333
0.12337449 0.13030206 1.24125
0.17755076 0.13017084 1.24
0.18514505 0.13030206 1.24125
0.19576871 0.13080069 1.2459999
0.20666654 0.1314383 1.2474
0.21545875 0.13193175 1.2451251
0.22507891 0.13175993 1.2435
0.23506993 0.13181242 1.244
0.24379738 0.13129297 1.2407143
0.25331944 0.13114819 1.24
0.036873072 -0.013321541 1.2540001
0.04727266 -0.01414519 1.2540001
0.054073956 -0.01253221 1.2573335
0.063749187 -0.012340993 1.2590001
0.13641888 -0.013209271 1.2590001
0.14511916 -0.012955372 1.2583749
0.15210044 -0.011674246 1.2540001
0.063981965 -0.0057915612 1.2559232
0.071266741 -0.0092399977 1.2590001
0.12597784 -0.0063457354 1.2590001
0.13554673 -0.0058697555 1.2575715
0.14436315 -0.0057439799 1.2540001
0.15406153 -0.0081443256 1.2540002
0.16383119 -0.0082149236 1.2540001
0.17581153 -0.0054968852 1.2540002
0.18454716 -0.0034377654 1.2540002
0.19453076 -0.0030259411 1.2540001
0.062178291 0.0038627882 1.256143
0.13694985 0.0039839358 1.2562221
0.14436315 0.0046339864 1.2540001
0.058504209 0.015506139 1.2540001
0.061121717 0.014304044 1.2565
0.13799749 0.013493615 1.2581667
0.14486034 0.014296485 1.2561877
0.1508525 0.015506139 1.2540001
0.058504209 0.025389915 1.2540001
0.062078618 0.025077686 1.2590001
0.13892473 0.021769956 1.2590001
0.14547424 0.023856487 1.2568573
0.15334842 0.024154443 1.2539999
0.058504209 0.03403822 1.2540001
0.062317271 0.03364234 1.2590001
0.14894815 0.031693142 1.2590001
0.15504912 0.033838667 1.2556669
0.1642396 0.035498329 1.2539999
0.17830741 0.036509164 1.2540001
0.18267524 0.037126902 1.2540001
0.057711124 0.044775657 1.2548335
0.061243333 0.040375929 1.2590001
0.15897155 0.041616328 1.2590001
0.16539319 0.043644767 1.2561429
0.17461434 0.04446505 1.2543571
0.18429759 0.044169091 1.2540001
0.19078691 0.04639294 1.2540001
0.056968767 0.054612976 1.2567778
0.16699027 0.054020312 1.2589999
0.17496628 0.054273002 1.2563529
0.18481874 0.05388746 1.255875
0.19221315 0.055747233 1.2540002
0.054245558 0.063816525 1.2565
0.16899496 0.060222302 1.2590001
0.17484196 0.063254386 1.2589999
0.18523608 0.063927941 1.2586876
0.19378383 0.065723628 1.2547693
0.05101651 0.075632453 1.2540001
0.17651251 0.070145488 1.2590001
0.18747562 0.072936386 1.2589999
0.19497095 0.075276144 1.2563332
0.20426477 0.076291367 1.2540001
0.051067363 0.086017393 1.25525
0.18904178 0.082549475 1.2590001
0.1948534 0.085507609 1.2578889
0.20451437 0.085928045 1.2539999
0.2137492 0.089140274 1.2540001
0.04852061 0.093340874 1.2540001
0.051680412 0.096858732 1.2580001
0.19706051 0.095697694 1.2589999
0.20507342 0.096077852 1.2574376
0.21441481 0.095894195 1.2540001
0.22156969 0.098694593 1.2540001
0.04852061 0.10322465 1.2540001
0.051639732 0.10668876 1.257
0.19781226 0.10570358 1.2590001
0.20532982 0.10611703 1.2590001
0.2146036 0.10574766 1.254625
0.2234416 0.10631334 1.2539999
0.05525244 0.11532281 1.2556667
0.064743966 0.11928579 1.2540001
0.074954763 0.1196425 1.25775
0.085048929 0.11976141 1.2590001
0.094883554 0.1182832 1.2565
0.1039822 0.1186174 1.2556667
0.11466196 0.11928579 1.2540001
0.1249769 0.117949 1.2573333
0.13580738 0.11669129 1.258
0.14416519 0.11629842 1.2573333
0.15605476 0.11944433 1.2556667
0.1614774 0.11976141 1.2590001
0.17776543 0.11976141 1.2590001
0.18528299 0.11976141 1.2590001
0.19655935 0.11682957 1.2589999
0.20532981 0.11604022 1.2590001
0.21455111 0.11560724 1.2543125
0.22448157 0.11557937 1.2539999
0.23155329 0.11846215 1.2540001
0.065991916 0.12175673 1.2540001
0.074727573 0.12299222 1.2540001
0.084572509 0.12340403 1.2540001
0.094159931 0.12281571 1.2540002
0.11590991 0.12175673 1.2540001
0.1583402 0.12175673 1.2540001
0.16559321 0.1229393 1.2559999
0.17490661 0.12199947 1.2565001
0.18529512 0.12295444 1.2554287
0.19515318 0.12417959 1.2558181
0.2051039 0.12507236 1.2554286
0.21449797 0.12546317 1.2539999
0.22460803 0.12500302 1.2547144
0.23367099 0.12422768 1.2539999
0.057895485 -0.021798702 1.268
0.065163769 -0.022281216 1.2670001
0.12982279 -0.021798702 1.268
0.13334252 -0.021755723 1.2655001
0.056177277 -0.017027726 1.2641112
0.065672293 -0.016540684 1.2638335
0.074215047 -0.01428619 1.2665001
0.084395014 -0.01180458 1.268
0.10963266 -0.01180458 1.268
0.11746041 -0.013984975 1.267375
0.12585859 -0.01499965 1.2662143
0.13377526 -0.015811646 1.2636251
0.068979353 -0.0042919978 1.263
0.074215047 -0.0055531566 1.2664999
0.10912792 -0.0063078138 1.268
0.11570851 -0.0055472958 1.2655001
0.12503739 -0.0050386013 1.2630001
0.13182467 -0.0030476586 1.263
0.067454085 0.0048445151 1.2657778
0.072617441 0.0015209153 1.268
0.10963266 0.00068807183 1.268
0.11620216 0.0038991831 1.2669286
0.12578864 0.0044320468 1.2655002
0.13297658 0.0049562743 1.2637144
0.065340191 0.014401539 1.2655001
0.1266681 0.013388935 1.2679999
0.13415083 0.014906935 1.266
0.065803014 0.02356245 1.2663335
0.12780377 0.02267514 1.268
0.13567276 0.024490574 1.2664616
0.14187993 0.02681648 1.263
0.065340191 0.034342982 1.2655001
0.13739409 0.034418236 1.2679999
0.14527318 0.034678925 1.2644286
0.15193518 0.03801553 1.263
0.06298288 0.044847682 1.2651429
0.13928691 0.042538453 1.268
0.14496541 0.044412356 1.2679999
0.15425742 0.044621587 1.2660557
0.16199043 0.046725906 1.263
0.062851802 0.054327868 1.266125
0.14568648 0.052800279 1.2680001
0.15459751 0.054403443 1.2664211
0.16243975 0.05404412 1.2637144
0.057913397 0.064755313 1.2644286
0.061681133 0.061902065 1.268
0.15433937 0.064400598 1.268
0.16447379 0.064437471 1.2648422
0.17623538 0.065805778 1.263
0.055744935 0.073915303 1.266889
0.15506043 0.074394725 1.2679999
0.1648244 0.074249521 1.2655001
0.17488335 0.074152723 1.2638335
0.18294851 0.075282156 1.2657272
0.055318374 0.084304422 1.26675
0.15569139 0.08126568 1.268
0.16452459 0.08334779 1.2679999
0.17385724 0.084327377 1.2670623
0.18423641 0.084510565 1.2665293
0.055237118 0.094148509 1.2648752
0.16767927 0.094382957 1.268
0.17398869 0.094382957 1.2679999
0.18665969 0.094200432 1.2666668
0.19278465 0.095877305 1.263
0.055396743 0.1046192 1.2644286
0.16767927 0.10187854 1.268
0.17452949 0.10402016 1.268
0.18620498 0.10404591 1.267
0.19373956 0.10450587 1.2635002
0.05774495 0.11282293 1.2646668
0.065028757 0.11567826 1.2661818
0.075568207 0.11567825 1.2661818
0.085544311 0.11546524 1.2663332
0.095563173 0.11414326 1.2654999
0.10563833 0.11539005 1.2655001
0.11610707 0.11619566 1.2652223
0.12578866 0.11414325 1.2655001
0.13536347 0.11399736 1.2658572
0.14624503 0.113939 1.266
0.15422651 0.11442499 1.2663333
0.16291216 0.1161757 1.268
0.17497012 0.11589808 1.268
0.1849314 0.11473754 1.2651876
0.1930605 0.11276411 1.2640002
0.16618012 0.12097149 1.263
0.1722694 0.12030046 1.2646668
0.068718009 -0.025244571 1.2736669
0.073412478 -0.023168579 1.2745001
0.096366167 -0.022777854 1.2761668
0.10466696 -0.022969019 1.2734288
0.07796213 -0.017702799 1.2728336
0.085543409 -0.015527694 1.2735386
0.095410094 -0.015892064 1.2728333
0.10592776 -0.015852077 1.2720002
0.1147255 -0.017167944 1.2720002
0.12643474 -0.019361055 1.2720001
0.079091452 -0.0048238644 1.2720002
0.085927106 -0.0055757873 1.2720001
0.096054025 -0.0055757873 1.2720001
0.10468491 -0.0052340045 1.2720003
0.076505899 0.0051271464 1.2723849
0.085762024 0.0042071682 1.2733335
0.095561311 0.0042071687 1.2733335
0.10567501 0.0049292822 1.2735627
0.1137761 0.008209479 1.2720001
0.06947089 0.01447551 1.2720001
0.075709924 0.014590718 1.2746669
0.084630936 0.013633745 1.2770001
0.090077393 0.010758013 1.2770001
0.10655508 0.013773317 1.2765001
0.11411574 0.014738518 1.2730001
0.12232068 0.016042018 1.2720002
0.06947089 0.024501158 1.2720001
0.07518018 0.023733404 1.2757503
0.084994033 0.022081204 1.2770001
0.1065983 0.024597466 1.2770001
0.11393946 0.024538506 1.273875
0.12372217 0.024859218 1.2720002
0.13149819 0.028260777 1.2720001
0.06829606 0.034572046 1.2736669
0.073132873 0.031726886 1.2770002
0.1065983 0.030888129 1.2770001
0.11572634 0.033390958 1.2764446
0.12393252 0.034536216 1.2723126
0.13149819 0.034526806 1.2720002
0.066939168 0.04455246 1.2720001
0.12475685 0.044308033 1.2752146
0.13384567 0.044828426 1.2726667
0.14035922 0.048312075 1.2720001
0.06755276 0.054918505 1.2740002
0.12616923 0.054289389 1.2770002
0.13428897 0.054687221 1.2745001
0.14260966 0.055831306 1.2720002
0.06415569 0.064892322 1.274143
0.12693173 0.063599572 1.2770001
0.13526697 0.063555181 1.2760911
0.1443662 0.064702056 1.2738751
0.15048613 0.064603746 1.2720001
0.059343986 0.075882614 1.2720001
0.063102558 0.074262761 1.2748573
0.14664766 0.074406132 1.2753334
0.15048613 0.074629404 1.2720001
0.059343982 0.084655054 1.2720001
0.063328959 0.084903389 1.27575
0.14711975 0.084907092 1.27575
0.15365078 0.085699394 1.2720003
0.16251183 0.087788068 1.2720001
0.059343982 0.094680697 1.2720001
0.063103981 0.095430464 1.2748573
0.14726514 0.095052868 1.2770001
0.15428372 0.094680712 1.2720001
0.16314475 0.094680712 1.2720003
0.18137319 0.094931342 1.2720002
0.059343982 0.10470635 1.2720001
0.06554424 0.1051481 1.2743335
0.076098159 0.10805357 1.2770001
0.084485702 0.10788582 1.2770001
0.093127407 0.10838907 1.2770001
0.11295249 0.10889232 1.2770001
0.12311922 0.10889232 1.2770002
0.1454746 0.10588562 1.2761669
0.15432067 0.10473114 1.2723125
0.16386811 0.10506441 1.2720002
0.17073993 0.10721277 1.2720001
0.18086684 0.10470635 1.2720001
0.066432819 0.11147367 1.2720002
0.07554704 0.11147367 1.2720002
0.085927114 0.11097238 1.2720001
0.096054018 0.11097238 1.2720001
0.10668154 0.11223667 1.275
0.11457418 0.11229581 1.2748573
0.1240285 0.11108143 1.2732501
0.13455676 0.11140858 1.2770001
0.14415681 0.11097238 1.2720001
0.15428372 0.11097238 1.2720001
0.1656765 0.11240461 1.2720002
0.17327167 0.11276269 1.2720002
0.18086684 0.11222558 1.2720001
0.076201536 -0.025597079 1.2830001
0.08388187 -0.024390798 1.2847273
0.093652062 -0.025476335 1.2853335
0.095533341 0.0082740188 1.2820001
0.084901556 0.015431348 1.2820001
0.094512701 0.014841922 1.2819999
0.10173016 0.015130621 1.2820002
0.07767193 0.027219895 1.2820001
0.084533408 0.02555351 1.2828333
0.094346933 0.024720319 1.28325
0.10191241 0.024693778 1.2820001
0.075180881 0.036090415 1.283
0.084318295 0.034911286 1.2860626
0.094577938 0.034918848 1.2863752
0.10433022 0.035422038 1.2848572
0.11272747 0.036443677 1.2827144
0.073485345 0.044654075 1.2852143
0.080536447 0.041273884 1.2870001
0.10615228 0.044270944 1.2870001
0.11483391 0.044969618 1.283875
0.12104964 0.047428828 1.2820001
0.072769783 0.054650653 1.2854999
0.10871385 0.051417761 1.2870001
0.11589862 0.054882254 1.2858461
0.12197887 0.055887431 1.2828335
0.06746541 0.066374704 1.2820001
0.070290118 0.06536559 1.2870001
0.11767937 0.06536559 1.2870001
0.12358318 0.065997936 1.2845001
0.13329747 0.067890368 1.2820001
0.067007713 0.076035574 1.2830001
0.070290118 0.075509466 1.2870001
0.11896017 0.072973497 1.2870001
0.12555403 0.075218722 1.2863334
0.13537715 0.075383887 1.2848125
0.14255624 0.075757429 1.2820002
0.06746541 0.085320577 1.2820001
0.070290118 0.085653342 1.2870001
0.12636028 0.083821811 1.2870001
0.13557659 0.085633464 1.2866875
0.14273849 0.085320584 1.2820001
0.06695509 0.094667211 1.2820001
0.071570911 0.097065203 1.2870002
0.13603738 0.09495189 1.2869999
0.14280745 0.095473416 1.282625
0.074273311 0.10346796 1.283875
0.084051006 0.1051085 1.2820001
0.094441339 0.10510007 1.2845001
0.10459986 0.10692811 1.2836666
0.11499028 0.10674867 1.2842728
0.12580034 0.10513273 1.2849166
0.13521531 0.10562871 1.2832499
0.14273849 0.10300339 1.2820001
0.078217208 -0.029825656 1.291
0.08421281 -0.028977707 1.2910001
0.091064923 -0.027281806 1.291
0.078217208 0.04776179 1.291
0.084898017 0.045472328 1.2910001
0.094919249 0.045217939 1.2910001
0.10237092 0.046998635 1.291
0.077703297 0.056156497 1.291
0.084804974 0.055505533 1.2934999
0.094941296 0.055407677 1.2913127
0.10494045 0.055647731 1.2910001
0.11162128 0.056665272 1.2910001
0.075821891 0.065717295 1.2939166
0.086258627 0.06418103 1.2960001
0.095419958 0.065485641 1.2943333
0.10547783 0.065746732 1.2944374
0.11290604 0.065568745 1.291
0.075273082 0.076648533 1.2943333
0.1080001 0.074760653 1.2960001
0.11495585 0.076129571 1.2913574
0.12189944 0.07955993 1.291
0.074304923 0.085514948 1.2931429
0.10947409 0.084975466 1.296
0.11581901 0.085730739 1.2920002
0.12446899 0.088281713 1.291
0.076150827 0.094486766 1.2922502
0.084519945 0.097174034 1.2936925
0.095238373 0.097801149 1.2937274
0.1059521 0.096641287 1.2934999
0.11535117 0.095805533 1.2921766
0.12575375 0.096094958 1.2910001
