# .PCD v0.7 - Point Cloud Data file format
VERSION 0.7
FIELDS x y z
SIZE 4 4 4
TYPE F F F
COUNT 1 1 1
WIDTH 1360
HEIGHT 1
VIEWPOINT 0 0 0 1 0 0 0
POINTS 1360
DATA ascii
-0.1180282 0.10848421 0.73680007
-0.11472096 0.10909048 0.73900002
-0.11708525 0.11077541 0.73616672
-0.1123335 0.11233088 0.7371875
-0.10745598 0.11307313 0.73744446
-0.10300992 0.11326857 0.73780006
-0.099237151 0.11472096 0.73900002
-0.11173182 0.11621791 0.73600006
-0.10696534 0.11621791 0.73600006
-0.10171593 0.11654831 0.73657149
-0.097267859 0.11775042 0.73741674
-0.092892386 0.11846916 0.73780006
-0.096030481 0.12126477 0.73600006
-0.092161916 0.12163525 0.73683345
-0.087718368 0.12272789 0.73790908
-0.084341913 0.12440573 0.73800004
-0.090422861 0.12757334 0.73600006
-0.087628983 0.12758757 0.73608339
-0.082809657 0.12772371 0.73687512
-0.07746993 0.12814547 0.73757154
-0.072470166 0.12735081 0.73877776
-0.069677144 0.12738954 0.73900002
-0.091459602 0.13273227 0.73628581
-0.087685406 0.13258065 0.73655558
-0.082786992 0.1326005 0.7366668
-0.077593721 0.13255888 0.73800004
-0.072961599 0.1311432 0.73900002
-0.069677144 0.13020477 0.73900002
-0.13738668 0.13948953 0.73600006
-0.13257097 0.1395843 0.73650002
-0.12266667 0.13948953 0.73600006
-0.1163581 0.13948953 0.73600006
-0.11220918 0.13850895 0.73637503
-0.10765774 0.13681322 0.737625
-0.10272148 0.13706799 0.73736364
-0.097498581 0.1374805 0.73650014
-0.092784233 0.13679864 0.73744446
-0.087193653 0.13618192 0.7383334
-0.082271442 0.13571271 0.7383334
-0.079530485 0.13583525 0.73900002
-0.13668573 0.14089143 0.73600006
-0.13345096 0.14047477 0.73750007
-0.11776 0.14089143 0.73600006
-0.095718101 0.1400581 0.73900002
0.11346668 -0.050038099 0.74000001
0.11699048 -0.050038099 0.74000001
0.15293334 -0.050038099 0.74000001
0.15744635 -0.050128259 0.74133343
0.16285716 -0.0505981 0.74133343
0.16768953 -0.050920825 0.74114287
0.17266667 -0.051800001 0.74000001
0.17794029 -0.051314425 0.74100006
0.18066192 -0.050105717 0.74100006
0.093028575 -0.045809526 0.74000001
0.097672664 -0.046466667 0.74085718
0.10232858 -0.046576194 0.74100006
0.10751352 -0.047176015 0.74136364
0.11256621 -0.047454 0.74150002
0.11741108 -0.047182687 0.7414546
0.1205143 -0.046514288 0.74000001
0.13390477 -0.046514288 0.74000001
0.13768356 -0.046834014 0.74028575
0.14266628 -0.047318336 0.74158335
0.14734899 -0.047703002 0.74128574
0.15219116 -0.048107076 0.74128574
0.15772891 -0.048803817 0.74266672
0.16251653 -0.048825722 0.74300003
0.16629049 -0.048825718 0.74300003
0.17902763 -0.0481181 0.74300003
0.18144846 -0.047303494 0.74133337
0.059434928 -0.040641274 0.74000001
0.062751442 -0.040894292 0.74033332
0.067657143 -0.04017143 0.74000001
0.073017865 -0.040564526 0.74075001
0.077712581 -0.041963242 0.74180001
0.082642704 -0.042378575 0.74166673
0.08730641 -0.042643137 0.74099994
0.092407085 -0.04352681 0.74228585
0.097201154 -0.044284955 0.74280006
0.10260477 -0.044580005 0.74300003
0.10685049 -0.044580005 0.74300003
0.11919358 -0.043503571 0.74275005
0.12270646 -0.042530775 0.74146158
0.1274346 -0.041488856 0.74089998
0.13235541 -0.042575676 0.74172735
0.13721651 -0.043852385 0.74266672
0.1827631 -0.042719763 0.74141663
0.04299048 -0.036647622 0.74000001
0.047923811 -0.03594286 0.74000001
0.052176829 -0.036428891 0.74033344
0.057379052 -0.037250716 0.74150002
0.061988369 -0.037946671 0.74244452
0.067470618 -0.038223274 0.74128574
0.072128579 -0.038539048 0.74250007
0.12737143 -0.03891905 0.74300003
0.18305302 -0.037459366 0.74211115
0.18535241 -0.037352383 0.74000001
0.033664048 -0.031900715 0.74025005
0.037368577 -0.032433018 0.74033332
0.042351309 -0.032467742 0.74112481
0.04738953 -0.0325354 0.74266666
0.05217883 -0.03302601 0.74269229
0.056452956 -0.033531815 0.74280006
0.18335927 -0.032403916 0.74144453
0.18535241 -0.033123814 0.74000001
-0.089504771 -0.026076192 0.74000001
-0.072590485 -0.026076192 0.74000001
-0.067422234 -0.026076194 0.74000001
-0.062270477 -0.026181906 0.74300003
-0.058653336 -0.026146669 0.74200004
-0.051551908 -0.026481431 0.74150008
-0.047667146 -0.026481431 0.74150002
-0.0028190478 -0.026076192 0.74000001
0.0021142862 -0.026076194 0.74000001
0.0077523813 -0.026076194 0.74000001
0.012724524 -0.026508812 0.74225008
0.017477859 -0.027716193 0.74150002
0.02233143 -0.02727581 0.74200004
0.027240193 -0.026957143 0.74100006
0.032809526 -0.028164629 0.74200004
0.037636314 -0.027740356 0.74212503
0.042202543 -0.028055876 0.74266672
0.047410484 -0.028446287 0.74300003
0.18356702 -0.027534923 0.74133337
-0.15797383 -0.020451907 0.74050003
-0.15222858 -0.020438097 0.74000001
-0.14729524 -0.020438097 0.74000001
-0.14377144 -0.020438097 0.74000001
-0.13108572 -0.020438097 0.74000001
-0.11675572 -0.021421112 0.74150008
-0.11251865 -0.022300683 0.74171436
-0.10734168 -0.022244049 0.74150002
-0.10269296 -0.021046098 0.74160004
-0.097231694 -0.021754978 0.74127269
-0.092531756 -0.022836722 0.74166667
-0.08777646 -0.023178356 0.7416364
-0.082801193 -0.023126192 0.74150002
-0.077483989 -0.023173338 0.7414546
-0.0722626 -0.023187622 0.74190915
-0.067900322 -0.024283811 0.74266672
-0.062270477 -0.024766669 0.74300003
-0.058653336 -0.024733335 0.74200004
-0.053779051 -0.024766669 0.74300003
-0.048825718 -0.024766669 0.74300003
-0.037715431 -0.023871241 0.74160004
-0.03182143 -0.024042383 0.74250001
-0.028451432 -0.02374794 0.74066675
-0.024666669 -0.024666669 0.74000001
-0.011654288 -0.022949049 0.74150002
-0.0077604773 -0.023517303 0.7408334
-0.0031287079 -0.024127077 0.74200004
0.0031296602 -0.024131568 0.74214292
0.0077785719 -0.024042383 0.74250007
0.011746477 -0.024200574 0.74300003
0.02405905 -0.024766669 0.74300003
0.026889525 -0.024766669 0.74300003
0.036796194 -0.024766669 0.74300003
0.18323383 -0.022322003 0.74170011
-0.20156193 -0.016209524 0.74000001
-0.19944763 -0.016209524 0.74000001
-0.18693018 -0.016224127 0.74066675
-0.18253335 -0.016209524 0.74000001
-0.17689526 -0.016209524 0.74000001
-0.17230907 -0.016242381 0.74150008
-0.16756137 -0.017500212 0.74166667
-0.16233239 -0.01812307 0.74144447
-0.15744548 -0.018077008 0.74228585
-0.15270858 -0.017673969 0.74233335
-0.14743021 -0.017526763 0.74210006
-0.14277108 -0.018375834 0.74212503
-0.13765699 -0.018385239 0.74250007
-0.1326011 -0.018481091 0.74228579
-0.12747824 -0.018268436 0.74185717
-0.12295763 -0.019080002 0.74200004
0.18294255 -0.017658733 0.74166667
-0.21245238 -0.011459525 0.74049997
-0.20729752 -0.012400069 0.7410714
-0.20252866 -0.012883811 0.74215394
-0.19737953 -0.013945479 0.74150002
-0.19244137 -0.01402558 0.74171436
-0.18797097 -0.014840001 0.74200004
-0.18232669 -0.014568954 0.74260008
-0.17749286 -0.014142382 0.74250007
-0.17407429 -0.014860001 0.74300003
-0.14836414 -0.014388256 0.74300003
0.18320915 -0.01299562 0.7416001
-0.22258493 -0.0072931754 0.74116671
-0.21750572 -0.0084733339 0.74150002
-0.21282136 -0.008625525 0.74240011
-0.20855969 -0.0091907941 0.74233341
0.18294255 -0.0077698412 0.74166673
-0.26780954 -0.00070476194 0.74000001
-0.26358098 -0.00070476194 0.74000001
-0.25089526 -0.001409524 0.74000001
-0.24729972 -0.0018357143 0.74190009
-0.24250527 -0.003529238 0.74150002
-0.23748469 -0.0035301906 0.74170005
-0.23267606 -0.0037665083 0.74183339
-0.22768724 -0.0046636197 0.74200004
-0.22431526 -0.0049533336 0.74300003
0.18306355 -0.0030180088 0.74163646
-0.27638996 0.0037327895 0.74114287
-0.27268505 0.0023376558 0.74161541
-0.26733005 0.0021223018 0.74258339
-0.26270398 0.0018858733 0.7421667
-0.257085 0.0018380954 0.74200004
-0.25273132 0.0013133336 0.74214292
-0.24865735 0.0012737144 0.74300003
0.18372695 0.002521497 0.74157155
-0.28087336 0.0091742864 0.74100006
-0.27895501 0.0075973817 0.74200004
0.18325572 0.007414286 0.74150002
-0.28174168 0.01251117 0.74109095
-0.27914533 0.013031838 0.74257147
0.18215492 0.013179685 0.74133337
-0.28120002 0.017619049 0.74000001
-0.27832636 0.017645929 0.7411111
0.18187539 0.01785497 0.74142867
-0.27587131 0.022342384 0.7408334
-0.27437097 0.024750002 0.74250007
0.18197417 0.022522118 0.74155557
-0.27556193 0.027485717 0.74000001
-0.27360916 0.027731549 0.74187505
0.18269257 0.027552575 0.74180001
-0.27556193 0.031714287 0.74000001
-0.27233636 0.032329399 0.74120003
-0.26808399 0.033851564 0.74271435
0.1824441 0.032687187 0.74172723
-0.26679984 0.036948152 0.74133337
-0.26331931 0.038473573 0.74125004
0.18185024 0.037289765 0.74225008
-0.26569524 0.040876195 0.74000001
-0.26181853 0.041636575 0.741
-0.25774002 0.042801399 0.74238467
-0.25256336 0.043862384 0.74283338
-0.24865735 0.044013906 0.74300003
0.18348981 0.042065311 0.74142867
-0.26005715 0.045809526 0.74000001
-0.25670525 0.045840479 0.74050003
-0.25215432 0.047268953 0.74080008
-0.24737379 0.047187969 0.7415455
-0.24329849 0.048490096 0.74220008
0.18225786 0.047330718 0.74175006
-0.24596192 0.050038099 0.74000001
-0.24203967 0.051612649 0.74054539
-0.23760566 0.052603893 0.74141663
-0.2329042 0.053502265 0.74162507
-0.22865944 0.053876579 0.74240011
0.17937097 0.053670477 0.74150002
0.1805889 0.050621908 0.74166673
-0.24032383 0.055676196 0.74000001
-0.23750477 0.056380957 0.74000001
-0.23221904 0.057203174 0.73999995
-0.22733912 0.057715494 0.74086666
-0.2229625 0.058494478 0.74180001
-0.2186543 0.058732383 0.74300003
0.17935117 0.057565313 0.74100006
-0.22693335 0.061314289 0.74000001
-0.22222286 0.062271968 0.74022222
-0.21770327 0.061911024 0.74114281
-0.21290034 0.062776782 0.74192315
-0.20812495 0.064092956 0.74280006
-0.20450191 0.064393334 0.74300003
0.17917621 0.062159371 0.74166673
0.18020001 0.064306669 0.74200004
-0.21119367 0.066012703 0.74000001
-0.20710896 0.066856459 0.74036366
-0.202277 0.067424133 0.74133337
-0.19824153 0.068082303 0.74208343
0.18059593 0.068063676 0.74114299
-0.20085716 0.071180955 0.74000001
-0.19699654 0.072294034 0.74090916
-0.1925274 0.072285607 0.74266672
-0.18822667 0.074300006 0.74300003
0.18082446 0.07275366 0.74166673
-0.19521905 0.075409532 0.74000001
-0.19240002 0.075409532 0.74000001
-0.18722637 0.076631226 0.74122226
-0.18248582 0.07774239 0.74210006
-0.17753704 0.079139739 0.74100006
-0.17268543 0.078710966 0.74190009
-0.16770574 0.079960957 0.74300003
0.17933081 0.078369215 0.74133337
0.18081591 0.076886989 0.74066675
-0.17196193 0.082457148 0.74000001
-0.16812836 0.082651667 0.74175012
-0.16381383 0.083852865 0.74300003
0.17870446 0.082642861 0.74166673
-0.16719775 0.087219231 0.74018174
-0.16255672 0.087420568 0.7414667
-0.15841255 0.088431574 0.74114287
-0.15279357 0.08983738 0.74275005
-0.14718476 0.089867622 0.74300003
-0.14364667 0.089867622 0.74300003
0.17878507 0.086516745 0.74200004
0.18066192 0.088215239 0.741
-0.16280001 0.090914294 0.74000001
-0.15770192 0.091425084 0.74033344
-0.15239954 0.092426524 0.74083328
-0.14764868 0.092545189 0.74177784
-0.14282629 0.092624843 0.74241674
-0.13886666 0.093599379 0.74266672
0.18070239 0.092469692 0.74116671
-0.1501143 0.095142864 0.74000001
-0.14711906 0.096376196 0.74000001
-0.14229783 0.096424244 0.73999995
-0.13740495 0.096592195 0.74139994
-0.13286515 0.097977661 0.74176925
-0.12776116 0.099464394 0.74280006
0.17861359 0.09832596 0.74275005
0.18117231 0.097544946 0.74072737
-0.1321435 0.1013416 0.74066675
-0.12705605 0.10235065 0.74116671
-0.12236276 0.10255853 0.74266672
-0.11774782 0.10288781 0.74300003
-0.11321905 0.10402001 0.74300003
0.17902765 0.10260477 0.74300003
0.18219607 0.10239827 0.74150008
0.18744405 0.10269145 0.74022222
0.19240001 0.10289525 0.74000001
0.1980381 0.10289525 0.74000001
0.20169859 0.10296525 0.74050003
-0.1261524 0.10500953 0.74000001
-0.12233677 0.10540497 0.74080008
-0.11702721 0.10649905 0.7414546
-0.11233461 0.10738699 0.74183333
-0.10794699 0.10841618 0.74188894
-0.10246667 0.10953334 0.74200004
-0.097552627 0.10957024 0.74225003
-0.093986675 0.10953334 0.74200004
0.1826082 0.10566153 0.74260008
0.18739288 0.10607192 0.74250007
0.19214867 0.10660943 0.74230003
0.19752902 0.1065008 0.74145466
0.20187113 0.10576445 0.74200004
-0.10712381 0.11064763 0.74000001
-0.10162667 0.11149335 0.74000001
-0.097237721 0.11276177 0.74093324
-0.093213536 0.11301658 0.74260008
-0.087744758 0.11392667 0.74300003
-0.095142864 0.11628572 0.74000001
-0.092334054 0.11634333 0.74150008
-0.087633759 0.11731458 0.74206251
-0.08279144 0.11774782 0.74300003
-0.079960957 0.11888001 0.74300003
-0.086390957 0.12094811 0.74050003
-0.082469963 0.12264504 0.74127275
-0.078182347 0.12315118 0.7420001
-0.072464764 0.12345678 0.74159998
-0.068122864 0.12354024 0.74125004
-0.06294921 0.12377779 0.74266672
-0.076217145 0.12561619 0.74100006
-0.066905469 0.12720434 0.74090916
-0.062222563 0.12727459 0.74243748
-0.057710484 0.12825635 0.74285722
-0.052835561 0.12902257 0.74300003
-0.076114297 0.13460954 0.74000001
-0.072152704 0.13373049 0.74033344
-0.067844324 0.13259511 0.74146158
-0.062207699 0.13219166 0.74225008
-0.057265509 0.13220626 0.74233335
-0.052357864 0.13231011 0.7429167
-0.048471905 0.13197096 0.74300003
-0.10641906 0.1388381 0.74000001
-0.091619059 0.1388381 0.74000001
-0.087428898 0.1384308 0.74033344
-0.082587153 0.13835223 0.74116677
-0.077461436 0.13781992 0.74210006
-0.072298452 0.13798018 0.74227285
-0.067731194 0.13670143 0.74275005
-0.062270477 0.13515525 0.74300003
-0.057317145 0.13550904 0.74300003
-0.053779051 0.13515525 0.74300003
-0.11064763 0.14024763 0.74000001
-0.10702668 0.1411241 0.74142861
-0.10255727 0.14174537 0.74137497
-0.097881749 0.14141066 0.74116677
-0.092357308 0.14160144 0.7421667
-0.087914921 0.14165419 0.74244452
-0.08344239 0.14072144 0.74250007
-0.076422863 0.14223143 0.74300003
-0.071186483 0.14166534 0.74300003
-0.068639055 0.14152381 0.74300003
0.1724143 -0.050376199 0.74500006
0.17596191 -0.050376195 0.74500006
0.14900002 -0.046119049 0.74500006
0.1526854 -0.046160322 0.74566674
0.15742043 -0.04699184 0.74600005
0.16260323 -0.047091551 0.74637508
0.16752277 -0.047430836 0.7461251
0.17235941 -0.047534984 0.7470001
0.17731099 -0.047490191 0.74650002
0.078047618 -0.040442862 0.74500006
0.088690482 -0.040442862 0.74500006
0.092878096 -0.040988892 0.74633336
0.09762679 -0.04178774 0.74687499
0.10238852 -0.041949134 0.74658334
0.10763762 -0.042228289 0.74650013
0.11250713 -0.042526159 0.74673337
0.11733326 -0.042267065 0.74591678
0.12132858 -0.040442862 0.74500006
0.13410001 -0.040442862 0.74500006
0.13750111 -0.041502997 0.74585718
0.14256302 -0.042472251 0.74685729
0.14714372 -0.043116864 0.74710011
0.15237346 -0.044145126 0.74762505
0.15772116 -0.0443101 0.74800009
0.16199544 -0.044595052 0.74800009
0.16598478 -0.044880003 0.74800003
0.17847893 -0.043952741 0.74737501
0.18126744 -0.041371051 0.74640006
0.063147627 -0.036185719 0.74500006
0.067404769 -0.036185719 0.74500006
0.072870888 -0.036892112 0.74700004
0.077487834 -0.037676197 0.74644446
0.082423732 -0.037658021 0.74608344
0.086973183 -0.038153179 0.74650013
0.090907 -0.038688578 0.74766672
0.10044572 -0.039180957 0.74800003
0.11825524 -0.039180957 0.74800003
0.12255906 -0.037833855 0.7470001
0.12737322 -0.0374825 0.74612498
0.13250391 -0.037570566 0.74690914
0.13704191 -0.038798578 0.74750006
0.1424762 -0.039180957 0.74800003
0.1460381 -0.039180957 0.74800003
0.18094154 -0.037725907 0.74740005
0.053214293 -0.030509528 0.74500006
0.05818069 -0.031982861 0.7462858
0.062611848 -0.032727085 0.7470625
0.067201272 -0.03324445 0.74800009
0.18184899 -0.032795921 0.7462858
-0.062438101 -0.026252383 0.74500006
0.014900001 -0.026252383 0.74500006
0.019157143 -0.026252383 0.74500006
0.029090479 -0.026252383 0.74500006
0.032638099 -0.026252383 0.74500006
0.036185715 -0.026252383 0.74500006
0.043280955 -0.026252385 0.74500006
0.047538102 -0.026607145 0.74500006
0.052529212 -0.027683495 0.74533337
0.057202861 -0.028245082 0.74766678
0.061264768 -0.029207621 0.74800003
0.067676194 -0.029207621 0.74800003
0.18224715 -0.027764289 0.74750012
-0.11565239 -0.020576192 0.74500006
-0.11210477 -0.020576192 0.74500006
-0.10855715 -0.020576192 0.74500006
-0.09152858 -0.020576192 0.74500006
-0.087426357 -0.020613018 0.74633336
-0.082417153 -0.020603811 0.74600005
-0.077338099 -0.020576192 0.74500006
-0.072418578 -0.020590002 0.74550003
-0.0672796 -0.021613471 0.7458573
-0.062617414 -0.022463404 0.74714291
-0.05752477 -0.022580868 0.74736375
-0.052348007 -0.023184765 0.74680007
-0.047519527 -0.023314288 0.74750012
-0.042682149 -0.02347373 0.74691677
-0.037705719 -0.022054289 0.7470001
-0.033161908 -0.022344762 0.74720001
-0.027409049 -0.022424763 0.7475
-0.02277262 -0.022772621 0.74725008
-0.019208573 -0.023477145 0.74700004
-0.012801429 -0.022039525 0.74650002
-0.0078047626 -0.021995239 0.74500006
-0.002413905 -0.022302667 0.74580008
0.002412762 -0.022290859 0.74540007
0.0078047626 -0.021995239 0.74500006
0.013500136 -0.022836192 0.74600011
0.01775397 -0.023433968 0.74566668
0.022445336 -0.023154095 0.74580002
0.027933607 -0.023056056 0.74657148
0.032737385 -0.024195956 0.74725002
0.037688576 -0.023228256 0.74666667
0.04266667 -0.023464762 0.74666667
0.047655083 -0.024182066 0.74683332
0.052361231 -0.024298916 0.74728578
0.056278098 -0.024933334 0.74800003
0.18165144 -0.022871567 0.74714297
-0.16531906 -0.01631905 0.74500006
-0.16248097 -0.01631905 0.74500006
-0.15893334 -0.01631905 0.74500006
-0.14261429 -0.01631905 0.74500006
-0.13776305 -0.016633527 0.74640006
-0.13268097 -0.01631905 0.74500006
-0.12779859 -0.016330002 0.74550003
-0.12249008 -0.017178504 0.74714297
-0.11757544 -0.01791181 0.74640006
-0.11246175 -0.01763368 0.74609089
-0.10762363 -0.017912572 0.74640006
-0.10236566 -0.017770398 0.74641675
-0.097321168 -0.017757991 0.74588895
-0.092689358 -0.017916711 0.747091
-0.087949291 -0.018871667 0.74775004
-0.082299866 -0.018616328 0.7477144
-0.077597633 -0.018509049 0.74750012
-0.07254 -0.01849024 0.74675012
-0.067646354 -0.018513335 0.74766672
-0.06311696 -0.018949335 0.74800009
0.18082336 -0.017797621 0.74750006
-0.20150477 -0.010642858 0.74500006
-0.19729649 -0.011259186 0.74557149
-0.19253907 -0.011366668 0.74600005
-0.18760811 -0.012079525 0.74616671
-0.18249314 -0.011774814 0.74688894
-0.17714602 -0.011889932 0.74700004
-0.17203321 -0.012489526 0.74642861
-0.16731799 -0.01296088 0.74661541
-0.16225955 -0.012808334 0.74725008
-0.15719098 -0.012800317 0.74683332
-0.15259649 -0.012736704 0.74630767
-0.14709251 -0.013322264 0.7461251
-0.14254902 -0.013652556 0.74736375
-0.13748954 -0.014960001 0.74800003
-0.13217267 -0.014346531 0.74785721
-0.12747334 -0.013708334 0.74775004
-0.12419176 -0.014485082 0.74800003
-0.11683048 -0.01424762 0.74800003
-0.11279591 -0.013814191 0.74770015
-0.10792573 -0.014603811 0.74800003
-0.10258286 -0.014960001 0.74800003
-0.09725944 -0.014382096 0.74760002
-0.094229534 -0.014478414 0.74766672
0.18112819 -0.012521907 0.74700016
-0.22137144 -0.0063857147 0.74500006
-0.21782383 -0.0063857152 0.74500006
-0.21234886 -0.0067972802 0.74571431
-0.20699479 -0.0078164292 0.74625009
-0.20251071 -0.0081776194 0.74675
-0.19790906 -0.0087798424 0.74750006
-0.19234288 -0.0092609534 0.74800003
-0.1873562 -0.0092609543 0.74800003
-0.18450668 -0.0092609534 0.74800003
-0.17275238 -0.0089047626 0.74800003
-0.16740954 -0.0092609543 0.74800003
0.18074726 -0.0075373338 0.74660003
-0.24265717 -0.00070952385 0.74500006
-0.23804525 -0.0010642858 0.74500006
-0.23244645 -0.0015966666 0.74525005
-0.22753468 -0.0018474286 0.74660009
-0.22254834 -0.0027401366 0.74657148
-0.2176128 -0.0031476193 0.74671435
-0.2126852 -0.0038752381 0.74744451
0.18088478 -0.0026075135 0.74677783
-0.27174765 0.0049666669 0.74500006
-0.26749051 0.0049666669 0.74500006
-0.26225191 0.0044428576 0.74625009
-0.2570833 0.0041657151 0.7465716
-0.25221908 0.0042638103 0.74600005
-0.24691315 0.0032260811 0.74615383
-0.24250288 0.0029027108 0.74738467
-0.23753831 0.0020064935 0.74736375
-0.23379397 0.0011869842 0.74766672
-0.22582477 0.00071238098 0.74800003
-0.22226286 0.00071238098 0.74800003
0.18188581 0.0027805194 0.74681824
-0.27645907 0.0079909526 0.74575001
-0.27288234 0.007013198 0.7470001
-0.26785529 0.006411429 0.74800003
-0.26286861 0.006411429 0.74800003
-0.2585943 0.006411429 0.74800003
-0.25218287 0.006411429 0.74800003
-0.24790859 0.006411429 0.74800003
0.18216556 0.0078268265 0.74716663
-0.27701849 0.012800206 0.74664289
0.18107118 0.012897824 0.74642873
-0.27632916 0.017365854 0.74642867
-0.27426669 0.019234287 0.74800003
0.18051088 0.017497145 0.74680012
-0.27577752 0.021067623 0.74566674
-0.27328506 0.023221128 0.74709105
-0.26999241 0.024933334 0.74800003
0.17999144 0.022765717 0.74700004
0.18092859 0.022941273 0.74500006
-0.27154955 0.02748939 0.74557155
-0.26803213 0.028056288 0.74770015
0.17999145 0.027745716 0.7470001
0.18092859 0.02767143 0.74500006
-0.27032858 0.030509526 0.74500006
-0.26710185 0.031682 0.74590003
-0.26290351 0.033824679 0.7470001
0.17999144 0.032725718 0.74700004
0.18092859 0.031928577 0.74500006
-0.26204967 0.037300218 0.74522221
-0.25742126 0.037688576 0.74666667
-0.25219277 0.03759861 0.74745464
-0.24803525 0.038213652 0.74766678
0.17931923 0.037714764 0.74716675
0.18092859 0.039023813 0.74500006
-0.25661111 0.040915877 0.74500006
-0.25267452 0.041165955 0.74524999
-0.24700795 0.042035561 0.74600005
-0.24272104 0.043309022 0.74738479
-0.23722288 0.044880003 0.74800003
-0.23437335 0.044880003 0.74800003
0.17939954 0.041290477 0.7475
0.18145411 0.04291429 0.74599999
-0.24220574 0.04702143 0.74525005
-0.23772274 0.047686666 0.74733347
-0.23279026 0.048046138 0.74800009
0.17951791 0.047406286 0.74739999
0.18140477 0.047214288 0.74550009
-0.2371386 0.050410002 0.74550009
-0.2321848 0.051110484 0.74685723
-0.22728395 0.052534293 0.74655563
-0.2228208 0.053167634 0.74618185
-0.21769653 0.053356513 0.74700016
-0.21347684 0.05437842 0.74800003
0.17975049 0.051153336 0.74600005
-0.22179715 0.056620002 0.74500006
-0.21767399 0.057240535 0.74611109
-0.21271512 0.057559855 0.74616671
-0.20790859 0.058125503 0.74733347
-0.20367311 0.058395483 0.74775004
0.17880763 0.059127621 0.74800003
-0.21214764 0.060664289 0.74500006
-0.20708792 0.061629009 0.74536371
-0.20228726 0.062362127 0.746077
-0.19770911 0.06305781 0.74653858
-0.19283266 0.063939057 0.74714297
0.17809048 0.063147627 0.74500006
-0.19568668 0.067120962 0.74500006
-0.19228098 0.067404769 0.745
-0.18773177 0.067554772 0.74666679
-0.18274765 0.068797521 0.74779999
-0.17880763 0.069100954 0.74800003
0.17945454 0.067161672 0.74625009
-0.19086191 0.070242859 0.74500006
-0.18714708 0.072080821 0.74514282
-0.18279606 0.072549045 0.74683344
-0.17787223 0.072570905 0.7470625
-0.17276964 0.073614508 0.7472223
0.17956191 0.072934859 0.74640006
-0.18234764 0.075919054 0.74500006
-0.17768505 0.076527223 0.74500006
-0.17162888 0.076629668 0.74600011
-0.16789572 0.077900238 0.74700004
-0.16242287 0.079074293 0.74800003
0.17892334 0.077190481 0.7470001
-0.16531906 0.080885723 0.74500006
-0.16206953 0.081803821 0.74583334
-0.15766099 0.082743555 0.74714291
-0.15299499 0.083198451 0.74781829
-0.14817524 0.084773339 0.74800003
0.1775244 0.082144193 0.7474001
-0.1568979 0.08732266 0.74544454
-0.15221637 0.08724755 0.74590921
-0.1473719 0.087540865 0.74610013
-0.14254329 0.087992385 0.74711114
-0.13820192 0.089047626 0.74800003
0.17698637 0.088018738 0.74733341
-0.14132033 0.090190165 0.74566674
-0.1373316 0.092185244 0.74650002
-0.13266297 0.093518391 0.74730009
-0.12894095 0.094746672 0.74800003
0.17775033 0.092431962 0.74656254
-0.13149557 0.095957153 0.74633336
-0.12754373 0.097399533 0.74650002
-0.12242033 0.0975089 0.74733341
-0.11768144 0.097741194 0.74775004
-0.11469334 0.098308578 0.74800003
0.17735462 0.097178951 0.7472223
-0.12274762 0.10004286 0.74500006
-0.11741208 0.10060541 0.74566674
-0.11233833 0.10194141 0.74692309
-0.10799405 0.10372476 0.74725008
-0.10358019 0.10415009 0.74800009
-0.096171431 0.10472 0.74800003
0.17778721 0.10244953 0.7462858
-0.10721973 0.10661104 0.74557149
-0.10233049 0.10730429 0.74616671
-0.097422227 0.10737588 0.74666673
-0.092464924 0.10846683 0.74683332
-0.088335246 0.10899429 0.74800003
0.17943621 0.10642985 0.74666667
0.18216559 0.10839923 0.74716675
0.18723887 0.10847735 0.74640006
0.19347525 0.10898381 0.74550003
0.19511905 0.10997619 0.74500006
-0.09152858 0.11210477 0.74500006
-0.087427624 0.11159334 0.74633336
-0.082674794 0.11255622 0.74706674
-0.077649534 0.11469334 0.74800003
-0.074800007 0.11469334 0.74800003
0.18878096 0.11041906 0.74800003
0.19079001 0.11034524 0.74750006
-0.081595249 0.11636191 0.74500006
-0.077458896 0.11796366 0.74616671
-0.073464498 0.11837879 0.74685729
-0.067676201 0.11896764 0.74800003
-0.077338099 0.12132858 0.74500006
-0.072149798 0.12085839 0.74585718
-0.067343406 0.12117715 0.74657142
-0.062466893 0.12192199 0.74730778
-0.057669804 0.12357756 0.74757159
-0.052470796 0.12369832 0.74788898
-0.048798099 0.12359811 0.74800003
-0.056903817 0.12643716 0.74500006
-0.052290481 0.12689029 0.74600011
-0.047794376 0.12786087 0.7470001
-0.043170292 0.12865601 0.74800009
-0.04663334 0.13256255 0.74566674
-0.042698216 0.13236977 0.74725008
-0.037885725 0.13269717 0.74800009
-0.032591432 0.13339335 0.74800009
-0.027782861 0.13392763 0.74800009
-0.024933334 0.13464001 0.74800003
-0.078757145 0.1397762 0.74500006
-0.066695243 0.13835715 0.74500006
-0.06247953 0.13774048 0.74550003
-0.057533909 0.13793811 0.74580008
-0.052277338 0.13737048 0.74579996
-0.047643177 0.13724573 0.74666673
-0.042732865 0.13745905 0.74783343
-0.038041145 0.13663469 0.74800009
-0.032057144 0.13606477 0.74800003
-0.026358098 0.13606477 0.74800003
-0.10004286 0.14403334 0.74500006
-0.092947625 0.14261429 0.74500006
-0.080176197 0.14119525 0.74500006
-0.077338099 0.14119527 0.74500006
-0.074026987 0.14166826 0.74500006
-0.066785529 0.14140382 0.74760008
-0.062940955 0.14140382 0.74760008
-0.057664767 0.14060144 0.74750006
-0.052697863 0.14029217 0.74775004
-0.049154289 0.14033906 0.74800003
0.14857143 -0.04071429 0.75000006
0.15234637 -0.041483495 0.75100005
0.15736519 -0.041745931 0.75144452
0.16256537 -0.042025834 0.75112498
0.16764988 -0.042626061 0.7513572
0.17246771 -0.04293564 0.75141668
0.17692374 -0.042197496 0.75099999
0.069285721 -0.035000004 0.75000006
0.072271124 -0.035062227 0.75133342
0.077142864 -0.035000004 0.75000006
0.08214286 -0.035000004 0.75000012
0.087957568 -0.035856329 0.75085723
0.092610903 -0.036644764 0.75122231
0.097369529 -0.037227381 0.75174999
0.1024832 -0.037021909 0.75154549
0.10741957 -0.037363045 0.75160003
0.11241683 -0.03723143 0.75183332
0.11715015 -0.036901705 0.75135714
0.12194763 -0.035403814 0.75100005
0.12739858 -0.035070002 0.75150007
0.13249525 -0.035093337 0.75200003
0.1379635 -0.036178946 0.75144446
0.14220899 -0.036905311 0.75142866
0.14790021 -0.037691053 0.75240004
0.15245961 -0.038395923 0.75257146
0.15734115 -0.039156001 0.75300002
0.16279143 -0.03944286 0.75300002
0.16709429 -0.03944286 0.75300002
0.17426573 -0.03944286 0.75300002
0.17824261 -0.037864421 0.75272733
0.18079844 -0.036063813 0.7523334
0.068179816 -0.031873524 0.75040001
0.072335243 -0.032228574 0.75199997
0.077348582 -0.03222857 0.75199997
0.08238668 -0.032237884 0.75222224
0.087254122 -0.032385714 0.75263631
0.091077149 -0.033705715 0.75300002
0.11306953 -0.033227623 0.75300002
0.1181493 -0.032809287 0.75300002
0.12257715 -0.03225651 0.75266665
0.12729621 -0.032873336 0.75271434
0.13267145 -0.032988571 0.75300002
0.13554001 -0.033705715 0.75300002
0.17856859 -0.033705715 0.75300002
0.18059954 -0.032250002 0.75250006
-0.017857144 -0.025000002 0.75000006
0.058745909 -0.026156193 0.75040007
0.062401909 -0.026762098 0.75139999
0.06722115 -0.027048705 0.75140005
0.07237564 -0.027229605 0.75241673
0.076985978 -0.027965024 0.75290918
0.082471438 -0.028685715 0.75300002
0.085340008 -0.028685715 0.75300002
0.18059954 -0.027233336 0.75250006
-0.055000003 -0.020714287 0.75000006
-0.052142859 -0.020714287 0.75000012
-0.047857147 -0.020714287 0.75000012
-0.042857148 -0.020714287 0.75000006
-0.037142858 -0.020714287 0.75000006
-0.032142859 -0.020714287 0.75000012
-0.02714286 -0.020714287 0.75000006
-0.022161273 -0.020732701 0.75066674
-0.017880954 -0.022171024 0.75100005
-0.0021490478 -0.020783335 0.75250006
0.0021466669 -0.020769525 0.75200003
0.0071676197 -0.020783335 0.7525
0.010757144 -0.020797145 0.75300002
0.018632859 -0.020783335 0.75250006
0.022180956 -0.020751113 0.75133342
0.027162384 -0.020728096 0.75050002
0.032185718 -0.021456193 0.75100005
0.036488336 -0.021463096 0.75125003
0.041594289 -0.020797145 0.75300002
0.047547352 -0.021369936 0.75157148
0.052236196 -0.021466035 0.75133342
0.057057779 -0.022678521 0.75200009
0.062391438 -0.023665717 0.75300002
0.067411438 -0.023665715 0.75300002
0.071714289 -0.023665715 0.75300002
0.18048021 -0.022506097 0.75260007
-0.12214287 -0.016428573 0.75000006
-0.090714291 -0.016428573 0.75000006
-0.087032564 -0.016313249 0.75072736
-0.082555719 -0.01608143 0.75050008
-0.077309407 -0.015747264 0.751625
-0.072086863 -0.015907431 0.7524001
-0.066962458 -0.015845444 0.75142866
-0.062477693 -0.016870342 0.75157148
-0.057242356 -0.01732794 0.75193346
-0.052241668 -0.017172782 0.75141668
-0.047578495 -0.017527226 0.75125003
-0.042687729 -0.018202435 0.75122231
-0.037266668 -0.018632859 0.75250006
-0.032236036 -0.018624922 0.75216669
-0.027228454 -0.018629882 0.75237501
-0.022500573 -0.018773716 0.75240004
-0.018645715 -0.019362858 0.75300002
0.0035857146 -0.019362858 0.75300002
0.023634287 -0.019337144 0.75200003
0.027242145 -0.01935643 0.75275004
0.032242861 -0.019345716 0.7523334
0.035140004 -0.019362858 0.75300002
0.04948286 -0.019362858 0.75300002
0.05235143 -0.019362858 0.75300002
0.18000287 -0.01721143 0.75300002
-0.17928572 -0.010714286 0.75000006
-0.15071429 -0.010714286 0.75000006
-0.14724049 -0.010721428 0.75050002
-0.14187953 -0.011078572 0.75050002
-0.13747795 -0.012170952 0.75183332
-0.13237779 -0.011448256 0.75133342
-0.12704429 -0.011202382 0.75083339
-0.12220512 -0.012679913 0.7511819
-0.11801493 -0.011998837 0.75100005
-0.11185715 -0.011285715 0.75000006
-0.10725601 -0.011868954 0.75080007
-0.10261943 -0.012306857 0.75139999
-0.097954884 -0.011817976 0.75212514
-0.092389129 -0.013605988 0.75200003
-0.087491438 -0.013625715 0.75300002
-0.082032003 -0.014171811 0.75160009
-0.07960286 -0.013625715 0.75300002
-0.065977149 -0.013625715 0.75300002
-0.063825719 -0.013625715 0.75300002
-0.055937149 -0.013625715 0.75300002
-0.053068578 -0.013625715 0.75300002
0.18000287 -0.01219143 0.75300002
-0.20728575 -0.0052857148 0.75000006
-0.2024124 -0.0057209535 0.75100011
-0.19747113 -0.0059635984 0.75155556
-0.19253758 -0.0064399135 0.75154549
-0.18744557 -0.0065743728 0.75200015
-0.18203098 -0.0072790477 0.75200009
-0.17759395 -0.0076119481 0.75163645
-0.17241946 -0.0075817145 0.75120008
-0.16743907 -0.0073930165 0.75133336
-0.16279864 -0.0086859865 0.75114292
-0.15737821 -0.0085832141 0.75112504
-0.15283467 -0.0087367622 0.75200003
-0.14758405 -0.0093135722 0.75225008
-0.14238666 -0.0087466678 0.75280005
-0.13769144 -0.0086057149 0.75300002
-0.13292268 -0.0087466678 0.75280005
-0.12807241 -0.0088406354 0.75266671
-0.12263143 -0.0093228575 0.75300002
-0.11684319 -0.0093187308 0.75266671
-0.11254096 -0.0093187308 0.75266671
-0.10757144 -0.0093228575 0.75300002
-0.10255145 -0.0093228575 0.75300002
-0.098965719 -0.0093228575 0.75300002
0.17976382 -0.0057295244 0.75200003
0.18040065 -0.0088406354 0.75266671
-0.21571431 -0.00071428576 0.75000006
-0.2120432 -0.0016685717 0.75133336
-0.20767152 -0.0021478571 0.75191665
-0.20270224 -0.0024685715 0.75266677
-0.19721431 -0.0035857146 0.75300002
-0.19362858 -0.0035857146 0.75300002
0.18000287 -0.0021514287 0.75300002
-0.23500001 0.0035714288 0.75000006
-0.23211858 0.0023238098 0.75050002
-0.2282636 0.002325 0.75075001
-0.22275525 0.0029412699 0.75099999
-0.21739368 0.0020186151 0.75154549
-0.21250059 0.0015364628 0.75271434
-0.20792495 0.0011950795 0.75283337
-0.20438573 0.00071714289 0.75300002
0.18059954 0.0021490478 0.75250006
-0.27214479 0.0090558734 0.75066674
-0.26719227 0.0084817698 0.75100005
-0.26223838 0.0082759196 0.75085717
-0.25748575 0.0081552379 0.75100005
-0.2525351 0.0085858731 0.75116676
-0.24721877 0.0081560966 0.7511
-0.24239795 0.007749611 0.75200003
-0.23778084 0.0066662272 0.75184619
-0.23241752 0.0060932143 0.75262511
-0.22757104 0.0056308848 0.75242865
-0.22268496 0.0053055244 0.75280005
-0.21729431 0.0050200005 0.75300002
0.18071921 0.007474286 0.75257152
-0.27245486 0.012156764 0.75086671
-0.26741558 0.012188255 0.75277787
-0.2631329 0.011471907 0.75283337
-0.25602001 0.010757144 0.75300002
-0.25100002 0.010757144 0.75300002
-0.24733216 0.011112144 0.75275004
-0.24311146 0.010757144 0.75300002
0.18048021 0.011898478 0.75260007
-0.27235237 0.017053083 0.75099999
-0.26821142 0.01721143 0.75300002
0.18000287 0.01721143 0.75300002
-0.27143145 0.021635715 0.75099999
-0.26761547 0.022519579 0.75200009
-0.2624743 0.022948571 0.75300002
0.18000287 0.02223143 0.75300002
-0.26658565 0.026285082 0.75044447
-0.26233146 0.026998645 0.75171435
-0.25784746 0.027619855 0.75253856
-0.25243929 0.027959896 0.75277787
-0.24842916 0.028813524 0.75260007
0.1791662 0.027233336 0.75250006
-0.26500002 0.030714288 0.75000006
-0.26166672 0.031666674 0.75000012
-0.25748512 0.032184448 0.75100005
-0.252516 0.032189209 0.75111109
-0.24777314 0.032224372 0.75191665
-0.2423943 0.033705715 0.75300002
-0.23880859 0.033705715 0.75300002
0.17860328 0.032408711 0.75142866
-0.25714287 0.035000004 0.75000006
-0.25214291 0.035000004 0.75000012
-0.2468261 0.036727536 0.75081825
-0.24251689 0.037057009 0.75242865
-0.23773137 0.037645936 0.7523846
-0.23232836 0.038004212 0.75291681
-0.22715501 0.038187858 0.75300002
-0.22410716 0.038367145 0.75300002
0.17805383 0.037184607 0.75083345
-0.24142858 0.041428573 0.75000006
-0.23724794 0.042160958 0.75033343
-0.23241261 0.042099621 0.75180006
-0.22769031 0.042410482 0.75245452
-0.22274461 0.042454857 0.75300008
0.17809315 0.042198669 0.75100005
-0.23166668 0.045952387 0.75000012
-0.22770804 0.046990745 0.75085717
-0.2228456 0.047298286 0.75173336
-0.21808091 0.047891513 0.75241673
-0.21281216 0.048586428 0.75300002
-0.20754115 0.048909146 0.75300002
-0.20438573 0.04948286 0.75300002
0.17827073 0.047611434 0.75174999
-0.22714287 0.050714288 0.75000006
-0.22214288 0.050714292 0.75000012
-0.21682897 0.051027048 0.75040001
-0.2123365 0.052116867 0.75169998
-0.20757501 0.052430566 0.75227273
-0.20292857 0.052477859 0.75225002
-0.1977993 0.053033099 0.7525
-0.19434573 0.053785719 0.75300002
0.17827684 0.05226646 0.75177789
-0.21214287 0.055000003 0.75000006
-0.20707268 0.055675108 0.75085723
-0.20212591 0.056931626 0.75100005
-0.19761863 0.057280067 0.75181246
-0.19253135 0.057962462 0.75291681
-0.18717431 0.059164286 0.75300002
0.17837755 0.057024956 0.75220013
-0.19714287 0.06071429 0.75000006
-0.19269969 0.06195344 0.75155556
-0.18770295 0.062329128 0.75225013
-0.18239334 0.062869534 0.75300008
-0.1770951 0.063094452 0.75283337
-0.17378764 0.06334763 0.75300002
0.17904668 0.062071811 0.75260007
-0.1869124 0.065355055 0.75080007
-0.18214686 0.066390097 0.75120002
-0.1771564 0.067262672 0.7513572
-0.17298003 0.067644 0.75240004
-0.16938916 0.068415433 0.75300002
0.17830832 0.067427456 0.75245458
-0.17500001 0.070714287 0.75000006
-0.17185637 0.071745887 0.75083339
-0.16794564 0.072535247 0.75272733
-0.1625046 0.07329201 0.75300002
-0.15820172 0.073578857 0.75300002
0.17759421 0.072326601 0.75191665
-0.16685322 0.075916871 0.75100005
-0.16270982 0.07670258 0.75130004
-0.15744306 0.077289239 0.75143749
-0.15299754 0.077717155 0.75280011
-0.14988287 0.07960286 0.75300002
0.17740752 0.077258699 0.75112498
-0.15165181 0.081614487 0.75040001
-0.14758328 0.082388505 0.75225008
-0.14242457 0.08333201 0.75300002
-0.13769144 0.083905719 0.75300002
0.17629954 0.082416683 0.75250006
-0.1457143 0.085000008 0.75000006
-0.14233239 0.085827634 0.75100011
-0.13726458 0.087041453 0.75178581
-0.13298573 0.088178813 0.75275004
-0.12932478 0.089164764 0.75300002
-0.12263143 0.089642867 0.75300002
-0.11904572 0.08964286 0.75300002
0.17426573 0.08964286 0.75300002
0.1758651 0.086859688 0.75166672
-0.13500001 0.090714291 0.75000006
-0.13199735 0.091382496 0.75080007
-0.12753762 0.092428565 0.7523334
-0.12252286 0.0924289 0.75233334
-0.11745462 0.092387311 0.75200003
-0.11330858 0.093228579 0.75300002
0.17426573 0.092511438 0.75300002
0.17531112 0.092306674 0.75133342
-0.12665208 0.095168903 0.75133342
-0.12214287 0.095000014 0.75000012
-0.11666667 0.095476203 0.75000012
-0.11250383 0.097536035 0.75154549
-0.10753517 0.09821564 0.7527501
-0.1024907 0.09818995 0.75255567
-0.097792014 0.098508961 0.75280011
0.17426573 0.098248586 0.75300002
0.17523335 0.097271435 0.75100005
-0.1076282 0.10133944 0.75040001
-0.10259829 0.101884 0.75020003
-0.097304069 0.10231167 0.75125003
-0.092253886 0.10290206 0.75257152
-0.088208579 0.10398572 0.75300002
0.17635432 0.10233769 0.75142866
-0.10071429 0.105 0.75000006
-0.097380958 0.105 0.75000012
-0.092183813 0.10576095 0.75033343
-0.087103941 0.10703851 0.75142854
-0.082991444 0.10816396 0.75214297
-0.078885719 0.10972287 0.75300002
0.17750597 0.10759845 0.75181824
-0.080714293 0.11071429 0.75000006
-0.077260964 0.11231667 0.75116676
-0.072367303 0.11249112 0.75233328
-0.067358978 0.11250358 0.75241661
-0.062841594 0.11301905 0.75266671
-0.058088578 0.11402573 0.75300002
0.17856859 0.11115715 0.75300002
0.18206322 0.11181894 0.75262511
0.18737578 0.11226784 0.75188893
0.19239186 0.11334695 0.75257146
-0.072206989 0.11653081 0.75066674
-0.066991359 0.11667195 0.75015396
-0.062231831 0.11731026 0.75108337
-0.057276316 0.11741418 0.75174999
-0.052132484 0.11786812 0.75190002
-0.047804289 0.11870811 0.75199997
-0.057040825 0.12132654 0.75000012
-0.052428573 0.12128573 0.75000006
-0.046945188 0.12193313 0.75066668
-0.043088984 0.12312844 0.75228572
-0.03944286 0.12406572 0.75300002
-0.046428576 0.12500001 0.75000006
-0.042682428 0.12635934 0.75036371
-0.037428506 0.12772591 0.75164294
-0.032439765 0.12850477 0.75274998
-0.027029872 0.12837413 0.75227278
-0.022798857 0.12890783 0.75280005
-0.035476197 0.13166669 0.75000012
-0.031873528 0.13135545 0.75040001
-0.026921695 0.13174415 0.75044447
-0.022175027 0.13233694 0.75111115
-0.018629206 0.13255334 0.7523334
-0.036249999 0.13803573 0.75000006
-0.032142859 0.13857144 0.75000012
-0.027207796 0.13798703 0.75000012
-0.022167144 0.137297 0.75083339
-0.017464397 0.13713737 0.75207698
-0.013625715 0.13625714 0.75300002
-0.061428577 0.14357144 0.75000006
-0.057063408 0.14301389 0.7502858
-0.052190483 0.14298414 0.75066674
-0.047694527 0.14236881 0.75025004
-0.042884611 0.14223793 0.75050008
-0.037240639 0.14252287 0.75200003
-0.032250002 0.14190048 0.75250006
-0.027526941 0.14173102 0.75214297
-0.022220954 0.14121461 0.75266671
-0.018645715 0.14127715 0.75300002
-0.056744386 0.14536305 0.75040001
-0.05188572 0.14564876 0.75040001
-0.047530957 0.14616953 0.75050002
-0.042400211 0.14645842 0.75177777
-0.038964767 0.1465362 0.75300002
0.1071381 -0.035233337 0.75500005
0.14380953 -0.035233337 0.75500005
0.14753556 -0.035264447 0.75566673
0.15278363 -0.035855241 0.75600004
0.15754254 -0.036403704 0.7561112
0.16215275 -0.037252743 0.75587505
0.16756941 -0.037797146 0.75700003
0.17285465 -0.03760469 0.7560001
0.17658454 -0.036323573 0.7552501
0.089880958 -0.030919049 0.75500005
0.093075842 -0.032223932 0.75612503
0.09746211 -0.032534476 0.75580007
0.10236208 -0.032245196 0.7554546
0.1071854 -0.032370795 0.75533336
0.11178815 -0.03204212 0.75511116
0.11684525 -0.031278573 0.75500005
0.12727144 -0.030919051 0.75500005
0.1319783 -0.031518862 0.75560009
0.13772322 -0.032223929 0.75612503
0.14184065 -0.032399159 0.75600004
0.14678732 -0.033448257 0.75800002
0.1508781 -0.033929527 0.75800002
0.17716478 -0.032408576 0.75620002
0.078663819 -0.025741905 0.75500005
0.082709059 -0.025891274 0.75516671
0.087771997 -0.027338021 0.75541675
0.092533782 -0.027366303 0.75769234
0.097325899 -0.027629267 0.75799996
0.10256603 -0.027932163 0.75800002
0.10777009 -0.028566808 0.75800002
0.11251747 -0.028128576 0.75733328
0.11756698 -0.028128257 0.75733334
0.1223759 -0.028609524 0.75733334
0.12724857 -0.029198097 0.75699997
0.13283049 -0.029598096 0.75800002
0.13644001 -0.029598096 0.75800002
0.14149335 -0.029598096 0.75800002
0.17791651 -0.027372066 0.75633347
-0.015819049 -0.020852383 0.75500005
-0.01224 -0.020880003 0.75600004
-0.0071961908 -0.020866193 0.75550008
-0.0021571431 -0.020852383 0.75500005
0.012960001 -0.020880001 0.75600004
0.015819049 -0.020852383 0.75500005
0.038828574 -0.020852383 0.75500005
0.043861907 -0.020852383 0.75500005
0.058269214 -0.020861588 0.75533342
0.062598571 -0.021585239 0.75550008
0.067359328 -0.021698097 0.75585723
0.072586916 -0.021792622 0.75650007
0.077452525 -0.023142589 0.7560001
0.082544498 -0.022979865 0.75742853
0.08735048 -0.023100954 0.75800002
0.091393158 -0.023245335 0.75800002
0.096735239 -0.023822859 0.75800002
0.17835091 -0.02253837 0.7564286
-0.074061908 -0.015100001 0.75500005
-0.069747627 -0.015100001 0.75500005
-0.061838098 -0.015100001 0.75500005
-0.058242861 -0.015100001 0.75500005
-0.046738099 -0.015100001 0.75500005
-0.042077862 -0.015464526 0.7552501
-0.037408933 -0.015826548 0.75537509
-0.032378577 -0.015829049 0.75550008
-0.027376907 -0.015849525 0.75650001
-0.022330478 -0.016325716 0.75633335
-0.01699543 -0.017716004 0.75620002
-0.012261589 -0.018030478 0.75733334
-0.007207619 -0.017295476 0.75675011
-0.0023648979 -0.018404081 0.75571436
0.0017515648 -0.018025577 0.75714284
0.0060006357 -0.018958732 0.75600004
0.012994287 -0.01949143 0.75800002
0.016573336 -0.019457145 0.75666666
0.022359367 -0.018993018 0.7573334
0.027384525 -0.018017858 0.75674999
0.032421432 -0.017290002 0.75650012
0.037404023 -0.018180318 0.75688893
0.042204291 -0.01911762 0.75750005
0.047675245 -0.018868763 0.75620008
0.052835401 -0.017770318 0.75650001
0.057127029 -0.018560596 0.75687498
0.062773339 -0.018903619 0.75760001
0.067137152 -0.018769525 0.75800002
0.070024766 -0.01949143 0.75800002
0.17873599 -0.017297143 0.75674999
-0.095633343 -0.010785715 0.75500005
-0.092489764 -0.011155953 0.75575006
-0.087753333 -0.011508334 0.7552501
-0.082690485 -0.011504762 0.75500005
-0.07752572 -0.012102338 0.75563639
-0.072238363 -0.012114893 0.75645459
-0.06747786 -0.012055 0.75575006
-0.062408455 -0.012049407 0.75537509
-0.057834387 -0.011940476 0.75530005
-0.052334156 -0.011823131 0.75571436
-0.047807727 -0.012732382 0.75677776
-0.042536199 -0.012976192 0.75700009
-0.037892956 -0.013398478 0.75640005
-0.032428574 -0.013692064 0.75666666
0.17875573 -0.01225381 0.75683331
-0.18407619 -0.0050333338 0.75500005
-0.1770024 -0.005036667 0.75550008
-0.17228238 -0.0055185724 0.75583339
-0.16734502 -0.0053978572 0.75575006
-0.16255905 -0.005754048 0.7552501
-0.15774858 -0.0057615875 0.75633335
-0.15244655 -0.0066895247 0.75657147
-0.14727101 -0.0064847628 0.75677776
-0.14246573 -0.0061154771 0.75550008
-0.13742906 -0.0057557151 0.75550008
-0.13271874 -0.0064796833 0.75600004
-0.12749653 -0.0067215874 0.75633335
-0.12228858 -0.0076321908 0.75620008
-0.11725715 -0.0079130167 0.75533342
-0.11228501 -0.0079173818 0.75575006
-0.10760549 -0.0075564287 0.75575006
-0.10302811 -0.0072033345 0.75650012
-0.09735366 -0.0083923824 0.75533342
-0.092961907 -0.0093682548 0.75666666
-0.087630205 -0.0087518375 0.75685722
-0.083176397 -0.0087923808 0.75680006
-0.078617156 -0.0093765091 0.7573334
-0.065693341 -0.0093847625 0.75800002
-0.062444769 -0.0090238098 0.75800002
-0.057676196 -0.0086504761 0.75699997
-0.052651435 -0.0093765091 0.7573334
0.17850024 -0.0071969051 0.75575006
-0.20118223 -0.0011987303 0.75533342
-0.19750905 -0.0016183334 0.75550008
-0.19223028 -0.001997672 0.75533342
-0.1873053 -0.0020271863 0.75563639
-0.18254402 -0.0023036194 0.75640005
-0.17771174 -0.0024515241 0.75730002
-0.17253524 -0.0028876194 0.75800002
-0.16748191 -0.0036095241 0.75800002
-0.16214414 -0.0036031748 0.75666666
-0.14654669 -0.0036095241 0.75800008
-0.14221525 -0.0036095241 0.75800008
-0.13932763 -0.0036095241 0.75800002
0.17867669 -0.0021614288 0.75650001
-0.21283811 0.0035952383 0.75500005
-0.20705087 0.0033095242 0.75540012
-0.20255354 0.0021601904 0.75580007
-0.1977589 0.002165556 0.75783336
-0.19274859 0.0021657145 0.75799996
-0.18748844 0.0021633336 0.75716674
-0.18408573 0.0007219048 0.75800002
0.17879526 0.0021628574 0.75700009
0.18048096 0.0028761907 0.75500005
-0.23628502 0.0089911912 0.75525004
-0.23218066 0.0088847633 0.75633335
-0.22729662 0.0085417703 0.75628585
-0.22233222 0.0071953977 0.75550008
-0.21758325 0.0067687626 0.75600004
-0.21250114 0.0064851954 0.75636369
-0.2077129 0.0060087838 0.75700003
-0.20285526 0.0057752384 0.75800002
-0.19732064 0.0055346037 0.75800002
-0.19274859 0.0057752389 0.75800002
-0.18841717 0.0057752389 0.75800002
0.17850024 0.0071969051 0.75575006
0.18048096 0.0050333338 0.75500005
-0.26245242 0.012942858 0.75500005
-0.25767022 0.012364071 0.75554556
-0.25278223 0.012644763 0.75557154
-0.24753024 0.013061089 0.75585723
-0.24221942 0.012787739 0.75637501
-0.23760183 0.012120606 0.75663638
-0.23251899 0.012141126 0.75799996
-0.22884382 0.010828572 0.75800002
0.17859827 0.012243333 0.7561667
-0.26613551 0.017263334 0.7552501
-0.26274192 0.017276352 0.75583351
-0.25788704 0.017289406 0.75637507
-0.25277743 0.017010614 0.75771439
-0.24809462 0.015641272 0.75800008
-0.24328192 0.015160001 0.75800002
-0.23750669 0.015881905 0.75800002
0.17861786 0.017285479 0.75625002
-0.26622337 0.020866193 0.75550008
-0.26256892 0.020861588 0.75533342
-0.25761741 0.022307225 0.75558347
-0.25276515 0.022348385 0.75699997
-0.24931812 0.023320636 0.7573334
0.17821647 0.022522043 0.75585723
-0.25598097 0.025166668 0.75500005
-0.25302821 0.026036192 0.75520009
-0.24717218 0.026875636 0.75591671
-0.24295962 0.028734561 0.75700009
-0.23750669 0.029598096 0.75800002
0.17738928 0.027283132 0.75671428
-0.24519525 0.031638097 0.75500005
-0.24237224 0.031644922 0.75516677
-0.23748858 0.032279402 0.75627279
-0.23264001 0.03259467 0.75719994
-0.22812192 0.033929527 0.75800002
0.17697525 0.032111622 0.75600004
-0.23584762 0.035233337 0.75500005
-0.2322524 0.035233341 0.75500005
-0.22777088 0.035539623 0.75540012
-0.22203389 0.038353443 0.75666666
-0.21873716 0.039704766 0.75800002
0.177183 0.037167214 0.75671428
-0.22074763 0.041704766 0.75500005
-0.21781762 0.042383462 0.75663638
-0.21256354 0.042828858 0.75709999
-0.20748381 0.043516196 0.7573334
-0.20429906 0.044036195 0.75800002
0.17723574 0.042867623 0.75650007
-0.21691272 0.04577937 0.75500005
-0.21240371 0.046221554 0.75537509
-0.20704372 0.046505239 0.75590008
-0.20258717 0.047580641 0.75700009
-0.19787621 0.047772575 0.7577334
-0.19274859 0.04878014 0.75800002
-0.18986097 0.049089529 0.75800002
0.1771127 0.047103494 0.75699997
-0.20133334 0.051052384 0.75500005
-0.19740906 0.051153813 0.75650001
-0.19260372 0.052579332 0.75630003
-0.1878466 0.052817326 0.75781816
-0.18360446 0.053661596 0.75800008
0.17496002 0.052560002 0.75600004
0.17609739 0.052938338 0.75625002
-0.19162621 0.055726193 0.75500005
-0.18731821 0.056583721 0.75590008
-0.1826224 0.05782035 0.75621438
-0.17771429 0.058035251 0.75700009
-0.17366129 0.058929212 0.75766671
0.1760996 0.057739154 0.75677782
-0.18191907 0.06111905 0.75500005
-0.17760479 0.06111905 0.75500005
-0.17216331 0.062291749 0.75566673
-0.16856478 0.06388858 0.75800002
0.1764759 0.062667623 0.75633335
-0.17137304 0.065912709 0.75500005
-0.16723552 0.067219749 0.75600004
-0.16264763 0.068368897 0.75566673
-0.15795811 0.068519369 0.75733334
0.17496002 0.067680001 0.75600004
0.17616668 0.067590483 0.75500005
-0.16610001 0.071185715 0.75500005
-0.1629362 0.071473338 0.75500005
-0.15717784 0.071649663 0.75557154
-0.15257537 0.072180197 0.75640011
-0.14768106 0.072692998 0.75709093
-0.14221525 0.074356198 0.75800008
0.17465693 0.072744049 0.75625002
-0.15085621 0.076650485 0.75500005
-0.14743716 0.077673815 0.75516671
-0.14252436 0.077739596 0.75581253
-0.13778374 0.078029096 0.75672734
-0.13298886 0.077875927 0.75714296
-0.12777716 0.078687623 0.75800008
0.17476383 0.077656768 0.75640005
0.17616668 0.077657148 0.75500005
-0.14237145 0.081731759 0.75500005
-0.1373381 0.081971437 0.75500005
-0.13219187 0.082501911 0.75530773
-0.12752382 0.082132228 0.75650001
