# .PCD v0.7 - Point Cloud Data file format
VERSION 0.7
FIELDS x y z
SIZE 4 4 4
TYPE F F F
COUNT 1 1 1
WIDTH 1382
HEIGHT 1
VIEWPOINT 0 0 0 1 0 0 0
POINTS 1382
DATA ascii
-0.048718646 0.18760385 0.73228574
0.27315286 0.18612145 0.73400009
0.27752191 0.18734479 0.73400015
0.28158909 0.18740833 0.73400015
0.28660953 0.18524763 0.73400003
-0.060568575 0.19423716 0.73100001
-0.057106432 0.19430359 0.73125005
-0.052388333 0.19319285 0.73100001
-0.048101276 0.19241063 0.73200005
0.27332765 0.19223811 0.73400003
0.27822095 0.19153905 0.73400003
0.28078413 0.19130604 0.73400009
-0.070875563 0.1963632 0.73200005
-0.067137532 0.19639088 0.73280001
-0.062215246 0.1964324 0.73400009
-0.05685588 0.19689843 0.73400009
-0.052428573 0.1964324 0.73400009
-0.047768258 0.19596636 0.73400009
0.13948953 -0.010514286 0.73600006
0.14089143 -0.010514286 0.73600006
0.15911619 -0.010514286 0.73600006
0.16262096 -0.010514286 0.73600006
0.18256478 -0.010519048 0.73633337
0.18773462 -0.011766985 0.73644447
0.19282162 -0.011795145 0.73729998
0.19718792 -0.011538641 0.73757148
0.11916191 -0.0063085719 0.73600006
0.12277842 -0.0063142865 0.73666668
0.12770262 -0.0063150004 0.73675001
0.13254064 -0.0063114292 0.73633337
0.13746135 -0.0077140965 0.73640007
0.14232095 -0.0075849532 0.73760003
0.1472549 -0.0072557679 0.7374444
0.15289097 -0.0075461906 0.73725003
0.15751481 -0.0075961915 0.73745459
0.16274929 -0.007851948 0.73745453
0.16741271 -0.0077252919 0.73755556
0.17249787 -0.0078477934 0.737091
0.17744517 -0.0075849532 0.73759997
0.18239334 -0.0078509971 0.73736364
0.18739185 -0.0077391542 0.73877776
0.19237462 -0.0086803185 0.73900002
0.19706668 -0.0091495244 0.73900002
-0.12547049 -0.00070095243 0.73600006
-0.12196572 -0.00070095243 0.73600006
-0.11916191 -0.00070095243 0.73600006
0.11747769 -0.0022598945 0.73666674
0.12240109 -0.0028127381 0.73862511
0.12745379 -0.0033886582 0.73863637
0.1321042 -0.0043609529 0.73860002
0.13724288 -0.0049266675 0.73900002
0.14216954 -0.0042228573 0.73899996
0.1478 -0.0049266671 0.73900002
0.15131906 -0.0049266671 0.73900002
0.16398764 -0.0049266671 0.73900002
0.16539524 -0.0049266671 0.73900002
0.17806381 -0.0049266675 0.73900002
0.18228668 -0.0049266675 0.73900002
-0.13248001 0.0049066669 0.73600006
-0.12745604 0.002944889 0.7361334
-0.12218282 0.0029466038 0.73646677
-0.1173604 0.0026447622 0.73653853
-0.11234287 0.0028107145 0.73725015
-0.10744 0.0025767197 0.73733342
-0.1028703 0.003796 0.7378
-0.097521275 0.0035089951 0.73666668
-0.092577867 0.0035073811 0.73641676
-0.087658741 0.0035069846 0.73633337
-0.082883023 0.0032895971 0.73607695
-0.07780572 0.0045561907 0.73600006
-0.07222262 0.0045578578 0.73625004
-0.067992389 0.0049066669 0.73600006
-0.062384766 0.0049066669 0.73600006
-0.0574781 0.0049066669 0.73600006
-0.04792032 0.0038172491 0.73633343
-0.044160005 0.0049066669 0.73600006
0.02873905 0.0042057144 0.73600006
0.032384004 0.0046262862 0.73600006
0.037870362 0.0042082146 0.73637503
0.041842222 0.0044415882 0.73633337
0.049767621 0.0049066669 0.73600006
0.053309053 0.0049100006 0.73650002
0.055867624 0.0044415882 0.73633337
0.060982861 0.0049066669 0.73600006
0.067852274 0.0040327385 0.73637503
0.072406329 0.0029995672 0.73681825
0.077236429 0.0028104763 0.73725015
0.082504489 0.0030938096 0.73789996
0.087094143 0.0044490481 0.73750007
0.091505006 0.0045578573 0.73625004
0.097782865 0.0045561907 0.73600006
0.10332038 0.004345905 0.73600006
0.10728765 0.0039072111 0.73628581
0.11255367 0.0033901592 0.73633349
0.11737841 0.0028128573 0.73800004
0.12144625 0.002267831 0.73899996
-0.15280762 0.0091123814 0.73600006
-0.14720002 0.0091123814 0.73600006
-0.14235747 0.0084155565 0.73633337
-0.13728011 0.0078433771 0.73645455
-0.1323785 0.0078620967 0.73699999
-0.1278324 0.0070242863 0.73750001
-0.12282033 0.0067977784 0.7383334
-0.1178881 0.0066861911 0.73900002
-0.11472096 0.0063342862 0.73900002
-0.09642192 0.0063342862 0.73900002
-0.092117153 0.0063285716 0.7383334
-0.087471984 0.0071312934 0.73814285
-0.082761198 0.007205477 0.73799998
-0.077288337 0.0070269052 0.73774999
-0.072362229 0.0070260325 0.73766673
-0.067360006 0.0070169056 0.73675001
-0.06252604 0.0077292076 0.73766667
-0.057641394 0.0075975768 0.7372728
-0.052822996 0.0073179593 0.73671442
-0.047523495 0.0072580958 0.73744446
-0.042581912 0.0081898421 0.73700011
-0.03715048 0.0091123823 0.73600006
-0.0070095244 0.0091123814 0.73600006
-0.0028038095 0.0091123814 0.73600006
0.002806905 0.0091216676 0.73675001
0.0079971431 0.0085590482 0.73660004
0.012915812 0.0080028577 0.73699999
0.017381072 0.0079022627 0.73737508
0.022182314 0.0085327905 0.73771435
0.027559049 0.0079009524 0.73725003
0.032332703 0.0077320649 0.73800009
0.037290264 0.0077400003 0.73877776
0.042155959 0.0077303979 0.73775005
0.048036192 0.0080078095 0.7374
0.052881312 0.007907263 0.73787504
0.057574287 0.0070221433 0.73725003
0.062666431 0.0075495238 0.73725003
0.067498811 0.0070311907 0.73825002
0.072210871 0.006897334 0.73900002
0.076996766 0.0066158101 0.73900002
0.088914618 0.006803493 0.73900002
0.092528306 0.006932654 0.73842865
0.097313888 0.0071312934 0.73814291
0.10251215 0.0070216674 0.73725003
0.10762534 0.0068939053 0.73860008
0.11260952 0.0070380955 0.73899996
0.11725467 0.006897334 0.73900002
-0.16204748 0.013063205 0.73600006
-0.1571725 0.012630953 0.73675013
-0.15250295 0.012652144 0.73791671
-0.1475251 0.012647503 0.73762512
-0.14187214 0.011829006 0.73845458
-0.13694699 0.011490795 0.73866671
-0.13261783 0.011160409 0.73900002
-0.061935242 0.010557144 0.73900002
-0.040586352 0.011026351 0.73900002
-0.037222099 0.012221144 0.7374
-0.03296395 0.012524764 0.73642862
-0.02873905 0.013318096 0.73600006
-0.021028573 0.014720001 0.73600006
-0.017145988 0.013538096 0.73700005
-0.012623062 0.012924558 0.73635727
-0.0077157151 0.012626668 0.73650014
-0.0028070833 0.01263875 0.73718762
0.0024327475 0.012275824 0.73807698
0.0077419057 0.011260953 0.73900002
0.01243397 0.010557144 0.73900002
0.016187619 0.010557144 0.73900002
0.028386986 0.011026351 0.73900002
0.032375243 0.011260953 0.73899996
0.037301905 0.010557144 0.73900002
0.044340003 0.010557144 0.73900002
0.048281338 0.010838668 0.73900002
0.051378097 0.010557144 0.73900002
-0.16182657 0.0173575 0.73637503
-0.15837096 0.017401429 0.73825002
-0.022064192 0.016724383 0.73780006
-0.018977143 0.016869524 0.73800004
-0.012246287 0.016469143 0.73900002
-0.0075408174 0.017193062 0.73900002
-0.0028152387 0.017595239 0.73900002
0.00070380955 0.016187619 0.73900002
-0.16086859 0.021379048 0.73600006
-0.15862191 0.022592701 0.73877776
-0.0028152382 0.020410478 0.73900002
-0.15707247 0.027252385 0.73718184
-0.15413429 0.028856192 0.73900002
-0.15512097 0.030181907 0.73700005
-0.15304875 0.032526154 0.73809099
-0.15115762 0.036824767 0.73650002
-0.1490192 0.038231432 0.73757148
-0.14626858 0.04200463 0.73685718
-0.14516287 0.046984445 0.73633337
-0.14428096 0.04926667 0.73900002
-0.14175168 0.052871905 0.73775005
-0.13865049 0.054193337 0.73900002
-0.14128977 0.056445479 0.73625004
-0.13771233 0.057753339 0.73746163
-0.13348922 0.059354611 0.73900002
-0.13636425 0.062220283 0.73642862
-0.13270211 0.062762484 0.73879999
-0.13172224 0.066797473 0.73700011
-0.12985238 0.069488578 0.73700005
-0.13107811 0.071497142 0.73600006
-0.12829299 0.072834887 0.73712504
-0.12646192 0.075970806 0.73633337
-0.12297846 0.078354172 0.73787504
-0.12146677 0.082571521 0.73645467
-0.11803096 0.083182767 0.73769999
-0.12126477 0.08621715 0.73600006
-0.11759382 0.087405883 0.73716676
-0.11603182 0.092180006 0.73660004
-0.11464334 0.092838578 0.73850006
-0.11251266 0.097257964 0.73771441
-0.10909048 0.099237151 0.73900002
0.31460288 0.09853334 0.73900002
0.31631407 0.098650247 0.73725003
-0.11043739 0.10132167 0.73625004
-0.10762107 0.10288013 0.73737502
0.31384987 0.10313144 0.7383334
0.31569609 0.10242561 0.73662502
-0.10635906 0.10635906 0.73633337
-0.10382515 0.10804001 0.73760003
0.31288287 0.10782675 0.73736364
0.31564242 0.10591573 0.73650002
-0.10197373 0.11179277 0.73640007
0.30906099 0.11219276 0.73720008
0.31152859 0.11174711 0.73627281
-0.10030429 0.11643668 0.73650002
-0.098266035 0.11721717 0.73700011
0.3088116 0.11753224 0.73750007
0.31052193 0.11565715 0.73600006
-0.096290484 0.12089144 0.73800004
-0.093202874 0.12317746 0.73766679
0.29891571 0.12413811 0.7385
0.30283061 0.12345663 0.73699999
0.30708778 0.1211683 0.73785722
-0.090752386 0.12722135 0.73640007
-0.08872401 0.12837544 0.73820007
0.29799914 0.12776032 0.73676932
0.30105907 0.12652192 0.73600006
-0.087082297 0.13202803 0.73740005
-0.084341913 0.13424572 0.73800004
0.29401395 0.13315678 0.73820007
0.29590243 0.13192683 0.73683345
-0.082554974 0.13692424 0.73728579
0.28902763 0.13871953 0.73750007
0.29221907 0.13726945 0.73709089
0.29510096 0.13598478 0.73600006
-0.08060953 0.14229333 0.73600006
-0.077984475 0.14262106 0.73769999
-0.073900007 0.14428096 0.73900002
0.28842345 0.14227915 0.73775005
0.29089525 0.14159238 0.73600006
-0.076774947 0.14691415 0.73646164
-0.073330805 0.14806828 0.73800004
0.28292179 0.14884858 0.73871434
0.28710139 0.1473247 0.73706269
-0.075702861 0.15070477 0.73600006
-0.072634406 0.15281275 0.73687506
0.27850807 0.1539464 0.73714286
0.28200182 0.15179884 0.73677778
0.2861824 0.15080714 0.73650002
-0.070844293 0.15711907 0.73650002
-0.068129815 0.15803458 0.73750001
-0.064046673 0.15976477 0.73900002
0.27444479 0.15652478 0.73700011
0.27708074 0.15706563 0.7365455
-0.066646077 0.16170609 0.73662502
-0.063070841 0.16356036 0.73787498
0.27435169 0.16278596 0.73675001
0.27547431 0.16192001 0.73600006
-0.061683811 0.16612573 0.73600006
-0.059105996 0.1674826 0.73757148
0.26928404 0.16909406 0.73825008
0.27185825 0.16708037 0.73712504
-0.057541914 0.17262909 0.73683333
0.26772508 0.17266779 0.73700017
-0.056113813 0.17605859 0.73650002
-0.054095563 0.17774129 0.73766673
0.26317766 0.17727573 0.73690003
0.26607415 0.17675857 0.73650014
-0.052010477 0.1813381 0.73800004
-0.049801432 0.18377382 0.73650002
0.25970572 0.18299049 0.73900002
0.26205802 0.18238874 0.73657155
0.26566097 0.18435049 0.73600006
-0.046917401 0.18709283 0.7372728
-0.043576196 0.18906859 0.73800004
0.26280782 0.1866843 0.73783338
0.26797351 0.18757334 0.73685718
0.27273196 0.18883255 0.73616672
0.27547431 0.18995811 0.73600006
0.28388575 0.18715429 0.73600006
0.28575498 0.18668699 0.73600006
-0.045561906 0.19276193 0.73600006
-0.043124672 0.19273286 0.73750001
0.26815143 0.19073239 0.73900002
0.27242145 0.1924331 0.73675007
0.27710986 0.19276193 0.73600006
-0.067525089 0.19907048 0.73600006
-0.062384766 0.19836955 0.73600006
-0.05761829 0.19921069 0.73600006
-0.052571438 0.19907048 0.73600006
-0.04757347 0.19820777 0.73614293
-0.042131435 0.19732462 0.73733342
-0.066707157 0.2023721 0.73730004
-0.0625543 0.20242476 0.73800004
-0.057819139 0.20259094 0.73790908
-0.052854527 0.20281358 0.73750001
-0.047666669 0.20202731 0.73783338
-0.042531751 0.20188384 0.73816675
0.20156193 -0.01057143 0.74000001
0.16984764 -0.0063428576 0.74000001
0.18958096 -0.0063428576 0.74000001
0.19275239 -0.0066952389 0.74000001
0.19780657 -0.0072905826 0.74088889
0.20267132 -0.0075967857 0.74212503
0.20591715 -0.0077838101 0.74300003
0.12826668 -0.00070476194 0.74000001
0.13284953 -0.0018327622 0.74040002
0.13759324 -0.0021155558 0.74088889
0.14236191 -0.0014095238 0.74000001
0.14749493 -0.0021156615 0.74100006
0.15281281 -0.0025212248 0.74185723
0.15777087 -0.0029865205 0.7418462
0.16281405 -0.0028886579 0.74181819
0.16773897 -0.0028229365 0.74158347
0.17253704 -0.002682921 0.74186671
0.17737094 -0.0025012987 0.7414546
0.18246755 -0.001989264 0.74181825
0.18717365 -0.0031741271 0.74116659
0.19250078 -0.0034055416 0.74236369
0.19718586 -0.0039414973 0.74285722
0.20096382 -0.0049533336 0.74300003
-0.10712382 0.0049333335 0.74000001
0.081047624 0.0049333335 0.74000001
0.12393744 0.0035238098 0.74000007
0.12759097 0.0028201591 0.74016666
0.13220669 0.0028292066 0.74233341
0.13685355 0.00099066668 0.74300003
0.14243755 0.0019809527 0.74260008
0.14642785 0.0014150002 0.74275005
0.16487525 0.00070761907 0.74300003
0.17195144 0.0010614287 0.74300003
0.17761239 0.00070761907 0.74300003
-0.12767556 0.0091701597 0.74066675
-0.12232351 0.0087044444 0.74100006
-0.11691348 0.0085749663 0.74142867
-0.11230954 0.0077717472 0.74166662
-0.10740152 0.0077740485 0.74191678
-0.10237462 0.0077676196 0.74133337
-0.097608894 0.0082332287 0.74088883
-0.092448585 0.0084695239 0.74100006
-0.087390482 0.0091619054 0.74000001
-0.08175239 0.0091619054 0.74000001
-0.077627622 0.0091742864 0.741
-0.072786674 0.0091866683 0.74200004
-0.067657143 0.0091619054 0.74000001
-0.057085719 0.0091619054 0.74000001
-0.051610481 0.0091907941 0.74233341
-0.048053339 0.0091866674 0.74200004
-0.044400003 0.0091619054 0.74000001
0.057085719 0.0091619063 0.74000001
0.060690477 0.0091742864 0.74100006
0.06770429 0.0091680959 0.74050003
0.073090002 0.0088280961 0.74150002
0.077991709 0.0085767349 0.74157155
0.082618102 0.0077694184 0.74144453
0.087025829 0.0080844443 0.74155563
0.092657149 0.0091949217 0.74266672
0.097584769 0.0091928579 0.74250007
0.10228127 0.0091701597 0.74066675
0.10726477 0.0088799996 0.74000001
0.11276191 0.0091619054 0.74000001
0.1182862 0.0088280961 0.74150002
0.12252625 0.0076309964 0.74054545
0.12741683 0.0077734399 0.74188894
0.13090953 0.0070761908 0.74300003
-0.14278476 0.014518097 0.74000001
-0.13772541 0.013866986 0.74033344
-0.13237907 0.013873227 0.74066669
-0.12721018 0.012721965 0.74206251
-0.12236303 0.012732225 0.74266672
-0.11793652 0.011086034 0.74300003
-0.11251144 0.010614286 0.74300003
-0.10725483 0.011220817 0.74300009
-0.10240259 0.011625172 0.74300009
-0.097651444 0.011321906 0.74300003
-0.092524424 0.012538615 0.74263644
-0.087642267 0.012723573 0.74212497
-0.082757317 0.012521645 0.7415455
-0.077745363 0.011309169 0.74212503
-0.072280012 0.012447811 0.74260008
-0.067619883 0.012565907 0.74113333
-0.062503889 0.013303413 0.74158329
-0.057597958 0.012510614 0.74142855
-0.052570041 0.012450918 0.74207705
-0.047354184 0.012016191 0.74211115
-0.042567361 0.012777577 0.74154544
-0.037404764 0.014820001 0.74100006
-0.032419048 0.014800001 0.74000001
-0.027533969 0.014826668 0.74133337
0.0044679367 0.014343493 0.74066675
0.0077733342 0.01413397 0.7420001
0.012771575 0.013208204 0.74184608
0.017790824 0.01291169 0.74181819
0.022618731 0.012017304 0.7421667
0.02724614 0.013271536 0.74200004
0.032462858 0.014115238 0.74099994
0.037397813 0.013126192 0.74090004
0.042068783 0.012713811 0.74150008
0.047117423 0.013017009 0.74157155
0.052656785 0.013098685 0.74176925
0.057272624 0.012728494 0.74241674
0.062249526 0.012733573 0.74274993
0.067547157 0.012378573 0.74266672
0.072299056 0.012026669 0.74280006
0.077626407 0.011898269 0.74281824
0.082508385 0.011180381 0.74300003
0.087744765 0.010614286 0.74300003
0.091282859 0.010614286 0.74300003
0.099066675 0.010614286 0.74300003
0.10281858 0.010953334 0.74200004
0.10737803 0.012010398 0.74175
0.11241048 0.012019366 0.74233335
0.11738573 0.011314763 0.74250007
0.12233572 0.011314763 0.74250001
0.12566414 0.011081271 0.74266672
-0.15610477 0.01797143 0.74000001
-0.1522624 0.017623335 0.7401666
-0.14742795 0.017636189 0.74066669
-0.14272946 0.017665479 0.74191666
-0.13778001 0.017664658 0.74188894
-0.13285336 0.017666668 0.74200004
-0.12735692 0.017688654 0.74291676
-0.12383334 0.016275238 0.74300003
-0.087744772 0.016275238 0.74300003
-0.084206671 0.016275238 0.74300003
-0.070761912 0.016275238 0.74300003
-0.067223817 0.016275238 0.74300003
-0.064393334 0.016275238 0.74300003
-0.053779051 0.016275238 0.74300003
-0.040334288 0.016275238 0.74300003
-0.037200954 0.016832573 0.74260008
-0.032245815 0.017396288 0.74250007
-0.027576722 0.017677885 0.74244452
-0.022899868 0.018258233 0.74142867
-0.017252928 0.017859731 0.74157155
-0.013013063 0.018460682 0.74142867
-0.0084571429 0.019028572 0.74000001
0.0030202598 0.017786667 0.7416364
0.0077838101 0.017286126 0.74300009
0.012433878 0.016881771 0.74300009
0.016275238 0.016275238 0.74300003
0.029012382 0.016275238 0.74300003
0.032535877 0.016739685 0.74266672
0.037503816 0.016275238 0.74300003
0.040334288 0.016275238 0.74300003
0.05448667 0.016275238 0.74300003
-0.15655786 0.022451704 0.74000007
-0.1524324 0.022582857 0.74099988
-0.14778347 0.022306407 0.74245465
-0.14247544 0.020798478 0.74280006
-0.13727809 0.021228572 0.74300003
-0.13260782 0.021087049 0.74300003
-0.12949429 0.020520953 0.74300003
-0.026181906 0.020520953 0.74300003
-0.022629526 0.020507144 0.74250007
-0.018037857 0.020867858 0.74275005
-0.012731072 0.021218214 0.74262506
-0.0077742869 0.021200638 0.74200004
-0.0028247619 0.021426987 0.74166673
0.0021223812 0.02122397 0.74283338
-0.15214702 0.027377836 0.74054545
-0.14870134 0.027589334 0.74280006
-0.15071937 0.031977147 0.74066675
-0.14785714 0.032706846 0.7421819
-0.14700519 0.037179321 0.74057144
-0.14486668 0.037453335 0.74200004
-0.14588572 0.04017143 0.74000001
-0.14341278 0.043095812 0.74180001
-0.1425169 0.047206413 0.74181825
-0.13940096 0.048825718 0.74300003
-0.14156555 0.050669529 0.74100006
-0.13799942 0.052654888 0.74212503
-0.13374001 0.05448667 0.74300003
-0.13620096 0.055751435 0.74100006
-0.13256858 0.05788229 0.74119997
-0.13038096 0.06201905 0.74000001
-0.12945072 0.062249761 0.74275005
-0.12858599 0.067980275 0.74242866
-0.12672488 0.071258634 0.74244446
-0.12366524 0.073846199 0.74200004
-0.1221487 0.076608695 0.74137503
-0.11906224 0.079453342 0.74266672
-0.11607651 0.082642227 0.74166673
-0.1152643 0.087685242 0.74250007
-0.11440144 0.0896862 0.74150002
-0.11280628 0.092810616 0.74228579
-0.11142154 0.096451238 0.74140006
-0.10925334 0.097585723 0.74250007
0.30922955 0.099774294 0.74300003
0.31275851 0.097909823 0.74207687
0.31502858 0.096552387 0.74000001
-0.10667072 0.10207834 0.74175006
-0.10402001 0.10402001 0.74300003
0.30909085 0.10255811 0.74266672
0.31176972 0.102213 0.74109095
-0.10500953 0.10500953 0.74000001
-0.10262584 0.10721727 0.74187505
-0.09899953 0.10960715 0.74250007
0.30498382 0.10968096 0.74300003
0.30817431 0.10816307 0.74122226
0.31103894 0.10609797 0.74057156
-0.10078096 0.11276191 0.74000001
-0.097878255 0.11287882 0.7418462
-0.094113342 0.11392667 0.74300003
0.30463004 0.11286525 0.74300003
0.30764085 0.11282095 0.74116671
-0.09605822 0.11724585 0.74162507
-0.093150131 0.11789584 0.74237508
0.30273014 0.11750027 0.74233341
0.30694669 0.11719775 0.74090916
-0.095142864 0.1205143 0.74000001
-0.091789939 0.12201743 0.74057156
-0.088822454 0.12257267 0.74271435
0.29779404 0.12281144 0.74171436
0.30205584 0.12116492 0.74028575
0.30516192 0.12121906 0.74000001
-0.087293781 0.1268626 0.74190915
0.29434067 0.12772891 0.74233341
0.29612792 0.12665144 0.74057144
-0.085564286 0.13152811 0.74250007
-0.084150001 0.13294238 0.74250007
0.29229575 0.13273335 0.74133325
0.29529527 0.13038096 0.74000001
-0.081620485 0.13603145 0.74200004
-0.079346351 0.13867906 0.74166673
0.28339544 0.13879734 0.74280006
0.28758794 0.13728905 0.74230003
0.29064891 0.13673525 0.74133337
-0.076520324 0.14150478 0.74166673
-0.073290482 0.14398891 0.74233341
0.2830666 0.1427554 0.74176925
0.28625306 0.14216873 0.74057144
-0.07181111 0.14692001 0.74166673
0.2794778 0.14856794 0.74166673
0.28177717 0.146731 0.7411111
0.28542858 0.14588572 0.74000001
-0.071309209 0.15179557 0.74133343
-0.068846665 0.154236 0.74220008
0.27437097 0.15486428 0.74250007
0.27760008 0.15224202 0.74099994
-0.066601589 0.15697335 0.74133337
-0.063892707 0.15867113 0.74266672
0.27423388 0.15795854 0.74185717
0.27556193 0.15998097 0.74000001
-0.061455518 0.16277307 0.74171436
0.26833799 0.16363049 0.74285722
0.27250811 0.16260107 0.74166662
-0.057634607 0.16725239 0.74100006
0.26358667 0.16889334 0.74200004
0.26731825 0.16761594 0.74171424
0.27182096 0.16591749 0.74133337
-0.056161195 0.1713074 0.74175006
-0.053221501 0.17360328 0.74228579
0.25969622 0.17478192 0.74300003
0.26323143 0.17326446 0.74188894
0.26581812 0.1712524 0.74100006
-0.052129239 0.17758355 0.74170011
0.25925502 0.17790596 0.74275005
0.26150554 0.17770953 0.74144447
-0.050724387 0.18128136 0.74180007
-0.047970347 0.18309608 0.74228579
0.25403526 0.18468858 0.74300003
0.25737748 0.18258709 0.74185717
0.26005715 0.18112382 0.74000001
-0.045809526 0.1853524 0.74000001
-0.043282147 0.18744263 0.7420001
0.25309178 0.18799081 0.74300003
0.25711021 0.18718289 0.74166673
0.26146671 0.18793653 0.74000001
0.26569524 0.18958096 0.74000001
-0.040958893 0.19208241 0.74150008
-0.037776381 0.19397679 0.74280006
0.24978954 0.1924724 0.74300003
0.25239304 0.19229969 0.74233341
0.25690699 0.19144276 0.74230009
0.26235002 0.1914005 0.74250007
0.26730913 0.19269818 0.74163646
0.27099335 0.19336572 0.74100006
-0.04017143 0.19521905 0.74000001
-0.037431195 0.19775486 0.74158335
-0.034070291 0.19890955 0.74220008
0.25307214 0.19651929 0.74225008
0.25581336 0.19645333 0.74200004
0.26871383 0.19587858 0.74250007
0.27136001 0.19574668 0.74200004
-0.04017143 0.20367621 0.74000001
-0.037374396 0.20238902 0.74044442
-0.03247495 0.2027428 0.74253845
-0.065542862 0.20649526 0.74000001
-0.061965179 0.20786506 0.74057144
-0.057658099 0.20757429 0.74133343
-0.05218491 0.20770904 0.74123073
-0.047000576 0.20748174 0.741
-0.042342227 0.20712827 0.74099994
-0.037469737 0.20714678 0.74233341
-0.032546595 0.20730929 0.74291676
-0.056609526 0.21157812 0.74300003
-0.051479291 0.21210884 0.74300003
-0.0481181 0.21204987 0.74300003
-0.042221274 0.2108705 0.74300003
-0.037857622 0.21051669 0.74300003
-0.034673337 0.21016288 0.74300003
0.20741749 -0.0068587307 0.74500006
0.16200796 -0.0011825399 0.74500006
0.18944287 -0.00070952385 0.74500006
0.19228098 -0.00070952385 0.74500006
0.19772065 -0.0011825397 0.74500006
0.20246553 -0.0024131432 0.74540007
0.20749371 -0.0028405958 0.74612498
0.21198615 -0.0021311566 0.74657148
0.13784114 0.0036766238 0.745
0.1427432 0.0049711112 0.74566674
0.14798306 0.0034097147 0.7456001
0.15254924 0.0030081321 0.74607688
0.15721738 0.0026796334 0.74592316
0.16228972 0.0029885084 0.74673337
0.16749048 0.0027887917 0.74592316
0.17207658 0.0038377144 0.74599999
0.17722511 0.0031974609 0.7458334
0.18250325 0.0024203812 0.74680012
0.18771216 0.0021348416 0.7465834
0.19253829 0.0030115019 0.7468462
0.19751126 0.0027038732 0.74653339
0.20269747 0.0021349206 0.74677789
0.20704973 0.0024215239 0.74760014
0.2121878 0.0017300681 0.74800009
0.2172762 0.0021371429 0.74800003
0.12984286 0.0092238104 0.74500006
0.13313785 0.0080110217 0.74528581
0.13710536 0.007647262 0.74687505
0.14206287 0.0070168716 0.74742866
0.14713849 0.0069796196 0.74779999
0.15244953 0.006411429 0.74800003
0.15743621 0.006411429 0.74800003
0.16218542 0.006411429 0.74800003
0.16733462 0.0071209534 0.74766672
0.17192616 0.0070156469 0.74728578
0.17690858 0.0067633339 0.7475
-0.11763763 0.013782001 0.74590009
-0.1127722 0.013653713 0.74660009
-0.10795547 0.013850715 0.74575013
-0.10227279 0.014291838 0.74500006
-0.097204775 0.014190476 0.74500006
-0.09436667 0.014900001 0.74500006
-0.080649219 0.014426986 0.74500006
-0.077338099 0.014190478 0.74500006
-0.074026987 0.014426986 0.74500006
-0.051322229 0.013953969 0.74500006
-0.047538102 0.014900002 0.74500006
-0.043990478 0.014900001 0.74500006
0.022704763 0.014900001 0.74500006
0.044700004 0.014900001 0.74500006
0.04824762 0.014900001 0.74500006
0.065985717 0.014900001 0.74500006
0.072513334 0.01461619 0.74500006
0.077338099 0.014900002 0.74500006
0.082639486 0.013971746 0.74588901
0.087507278 0.012982424 0.74590909
0.09258233 0.013097281 0.7461428
0.097289108 0.012995758 0.74663651
0.10221404 0.013643291 0.74672735
0.10799143 0.014920001 0.74600005
0.1128143 0.014900002 0.74500006
0.11778095 0.014190477 0.745
0.12274763 0.014190476 0.74500006
0.12767544 0.013066858 0.7456001
0.13249226 0.012951176 0.74713343
0.1365397 0.011160636 0.74800003
-0.12223352 0.018051622 0.74620003
-0.11776363 0.017658288 0.74760008
-0.11227124 0.017524574 0.74800009
-0.10754588 0.017093495 0.74783343
-0.10260106 0.01732487 0.74755567
-0.097552709 0.017802224 0.74766678
-0.092601739 0.017901128 0.74636376
-0.087388575 0.018473335 0.74600005
-0.082312278 0.017633548 0.7472223
-0.077610604 0.017623216 0.74762511
-0.072812952 0.018060954 0.74660009
-0.067526035 0.018481271 0.74633336
-0.062395241 0.017082226 0.74733341
-0.057415247 0.017319685 0.74733347
-0.052367337 0.01807362 0.74710006
-0.047644451 0.017779686 0.74666673
-0.042733755 0.017773546 0.74644452
-0.038048334 0.018847382 0.74675006
-0.034057148 0.019157143 0.74500006
0.0078047626 0.019157143 0.74500006
0.013197144 0.018873334 0.74500006
0.017934287 0.017934289 0.74575001
0.0227577 0.017781191 0.74675006
0.027521908 0.017934766 0.74575007
0.032667309 0.01870127 0.74566674
0.037637781 0.018464763 0.74566674
0.042817406 0.017890135 0.74590921
0.047638625 0.017776191 0.74655563
0.052406069 0.0179013 0.74636364
0.057565086 0.017768677 0.7462222
0.062493976 0.01775524 0.74566668
0.067465082 0.01775524 0.74566668
0.07252501 0.01777754 0.7465834
0.077489108 0.017773546 0.74644452
0.082449719 0.01751562 0.74760014
0.087266669 0.016740955 0.74800003
0.091897145 0.017453335 0.74800009
0.10756953 0.016740955 0.74800003
0.11270975 0.017322224 0.74744451
0.11740361 0.017789418 0.74711114
0.12242033 0.017794289 0.74733341
0.12719753 0.016950289 0.74780005
0.13143429 0.016740954 0.74800003
-0.14625953 0.024140477 0.74550003
-0.14288053 0.023643706 0.74722224
-0.13713335 0.023864763 0.74800003
-0.13262223 0.023488572 0.74733341
-0.127442 0.022023529 0.74589998
-0.12252469 0.022181353 0.74725008
-0.11825524 0.021371428 0.74800003
-0.090472385 0.020659048 0.74800003
-0.089047626 0.020659048 0.74800003
-0.071926907 0.021008335 0.74775004
-0.052716196 0.020659048 0.74800003
-0.047729529 0.020659048 0.74800003
-0.042505406 0.020659048 0.74800003
-0.03704381 0.020659048 0.74800003
-0.032409936 0.021233607 0.74671441
-0.027963653 0.021803971 0.74650013
-0.022295622 0.022297906 0.7456001
-0.017308097 0.023236353 0.74683344
-0.012789525 0.024156667 0.74600005
-0.0078111119 0.024146033 0.74566674
-0.0028409525 0.024140479 0.74550009
0.0032651431 0.02356286 0.74520004
0.0078100013 0.02272143 0.74550009
0.012784762 0.022729283 0.74575001
0.017511239 0.022494098 0.7474001
0.022796191 0.020659048 0.74800003
0.027497906 0.021228952 0.74800009
0.032451704 0.02126177 0.7477144
0.037747461 0.021366827 0.74783337
0.042304575 0.020938477 0.74779999
0.047017146 0.021371428 0.74800003
0.054140955 0.020659048 0.74800003
0.058415242 0.020659048 0.74800003
0.062214609 0.02113397 0.74800009
0.067676201 0.020659048 0.74800003
0.074800007 0.02137143 0.74800003
0.077649526 0.021015238 0.74800003
0.080499053 0.020659048 0.74800003
-0.14668968 0.02771388 0.74614298
-0.14461334 0.026358098 0.74800003
-0.01181943 0.026913906 0.74760008
-0.0081186667 0.026920954 0.74780005
-0.0022950266 0.027458414 0.74777782
0.0028478575 0.027768016 0.74758351
0.0078344774 0.026920954 0.74780005
0.012580424 0.027295981 0.74766672
0.017097145 0.027070478 0.74800003
-0.14589238 0.032245908 0.74580008
0.0035619049 0.030632382 0.74800003
-0.14368795 0.037639685 0.74566674
-0.14212622 0.041927151 0.74616671
-0.13934526 0.044790003 0.74650002
-0.1381907 0.047644448 0.74666673
-0.13464001 0.049154289 0.74800003
-0.13656436 0.05188382 0.7462858
-0.13314703 0.05297441 0.74662507
-0.13085835 0.057606433 0.74675006
-0.12858705 0.063083053 0.74760008
-0.12667286 0.067005567 0.7458334
-0.12458335 0.068342388 0.74750006
-0.1225107 0.072432175 0.74644452
-0.11896763 0.074800007 0.74800003
-0.11828002 0.077511758 0.74666673
-0.11631858 0.081457153 0.7470001
-0.11461668 0.084004298 0.74750006
-0.11291941 0.088024408 0.74687505
-0.1114543 0.091009341 0.74540013
-0.10919075 0.093346938 0.74657148
0.31265083 0.094102859 0.74666679
-0.10752977 0.097578585 0.74650007
0.30952954 0.097952388 0.74800003
0.31135482 0.09683954 0.7458334
-0.10621572 0.10124239 0.74600005
-0.10361667 0.10254809 0.74775004
0.30418667 0.10472 0.74800003
0.30778223 0.10284931 0.74715388
-0.10074478 0.10699695 0.74600005
-0.0976509 0.10862287 0.74685723
0.30394155 0.10833582 0.7474001
0.30699182 0.10724391 0.74663651
-0.095785722 0.11139525 0.74500006
-0.093583338 0.1124431 0.74725008
0.29991239 0.11398096 0.74800003
0.30261713 0.11235125 0.74664289
-0.091297291 0.1177011 0.74642867
-0.088602141 0.11884692 0.74725008
0.29926234 0.11779602 0.74780005
0.3007347 0.1174802 0.74580008
-0.086890101 0.12244058 0.74660009
0.29373842 0.12419176 0.74800003
0.29754147 0.12217343 0.74670005
-0.085852385 0.12558572 0.74500006
-0.084697783 0.12740318 0.74733341
0.28922671 0.12894095 0.74800003
0.29322985 0.1278381 0.7471112
0.29524288 0.12592286 0.74700004
-0.082945086 0.13260159 0.74722224
0.28836265 0.13256694 0.74727285
0.29141662 0.13194342 0.74657148
-0.080283821 0.13641049 0.74600005
-0.077900477 0.13837239 0.7470001
0.28333813 0.13739714 0.74750006
0.28668252 0.13658953 0.74620003
-0.076834291 0.14015144 0.74700004
-0.07312382 0.14268833 0.74725008
0.27951598 0.14349644 0.74775004
0.28153637 0.14219034 0.74650013
-0.070289999 0.14767857 0.74550009
0.27798674 0.14782397 0.74683344
0.28026193 0.14616191 0.74500006
-0.070242859 0.15183809 0.74500006
-0.067992523 0.15254925 0.7470001
-0.064826667 0.15458667 0.74800003
0.2734023 0.15413639 0.74720001
0.27646598 0.15138143 0.74625009
-0.065985717 0.15538572 0.74500006
-0.063352935 0.15731594 0.74742866
0.26939717 0.15831524 0.74766672
0.27205065 0.15768938 0.74583334
-0.061072957 0.16129582 0.74739999
-0.057683099 0.16379263 0.74774998
0.26381844 0.16408509 0.74800003
0.26742297 0.16221613 0.74640006
-0.056961641 0.16702397 0.74628574
-0.054478817 0.16770929 0.74774998
0.2628457 0.1675439 0.74678576
-0.052623529 0.17166924 0.74670005
-0.048441909 0.17453334 0.74800003
0.25432003 0.17453334 0.74800003
0.25793678 0.17260246 0.74757159
0.2618109 0.17188764 0.74579996
-0.050376195 0.17596191 0.74500006
-0.047968861 0.17792735 0.74730009
0.25396708 0.17818955 0.74779999
0.25727874 0.17763431 0.74666661
-0.046643656 0.18183956 0.7458334
-0.043396387 0.18283603 0.7470001
0.25313416 0.18301067 0.74718189
0.25636604 0.1810905 0.74566674
-0.041746072 0.18670845 0.74612504
-0.038688578 0.18917112 0.74766672
0.24808078 0.18814798 0.74754554
0.25178382 0.18695506 0.74640006
-0.040442862 0.19086191 0.74500006
-0.037502386 0.19195548 0.74650007
-0.034883335 0.19363764 0.74750006
0.24434668 0.19305526 0.74800003
0.24749084 0.19248228 0.74735719
0.25046194 0.19086191 0.74500006
0.2586143 0.19396001 0.74600005
0.26263428 0.19430667 0.74733341
-0.032774076 0.19767947 0.74633342
0.24779749 0.1962924 0.74766672
0.25108519 0.19743566 0.74685723
0.25755715 0.19511905 0.74500006
0.26286861 0.19661717 0.74800009
0.26681483 0.19794884 0.74675006
0.2710543 0.19848858 0.74700004
-0.030509526 0.20079525 0.74500006
-0.02804021 0.20244721 0.74644452
0.26358098 0.20017906 0.74800003
-0.027849529 0.20736644 0.74636364
-0.046828575 0.21427619 0.74500006
-0.042519052 0.21374154 0.74660009
-0.037681907 0.21328716 0.74650007
-0.032376602 0.21182425 0.74600005
-0.027775049 0.2115206 0.74780005
-0.046273813 0.21784335 0.74750006
-0.043158289 0.21607867 0.74780005
0.21250002 0.0025000004 0.75000006
0.21747844 0.0030968259 0.75033343
0.13928573 0.0092857145 0.75000006
0.14239684 0.0093022231 0.75133342
0.14740446 0.0088260323 0.75133342
0.15234573 0.0085838102 0.75100011
0.1573524 0.0085838102 0.75099999
0.16253227 0.0082759196 0.75085717
0.16707087 0.0090198098 0.75160003
0.17260192 0.0093104765 0.75200003
0.17717955 0.008585874 0.7511667
0.18246841 0.0075204773 0.75183332
0.18734853 0.0070153028 0.75140005
0.1922663 0.0080190478 0.75160009
0.19751087 0.0075872377 0.75139999
0.2024198 0.0073279124 0.75184613
0.20749411 0.0071604764 0.75164294
0.21244441 0.0073279128 0.75184619
0.2170779 0.0071649998 0.75224996
0.22195575 0.006812857 0.75300014
0.22590001 0.0078885723 0.75300002
0.13845715 0.012630478 0.75066674
0.14262742 0.012184869 0.75255567
0.14753586 0.01206104 0.75300008
0.15290514 0.012010358 0.75287509
0.15750921 0.011711746 0.75288892
0.16275573 0.011471907 0.75283337
0.16781142 0.010757144 0.75300002
0.1721143 0.010757144 0.75300002
0.17713429 0.010757144 0.75300002
0.18382764 0.01123524 0.75300002
0.18717431 0.010757144 0.75300002
0.20582001 0.010757144 0.75300002
-0.11500001 0.019285716 0.75000006
-0.11357144 0.019285716 0.75000006
-0.10785715 0.019285716 0.75000012
-0.10261905 0.019285716 0.75000012
-0.082857147 0.019285716 0.75000006
-0.077857152 0.019285716 0.75000006
-0.065173335 0.019337144 0.75200003
-0.062184289 0.018941429 0.75050002
-0.058333337 0.018809525 0.75000012
-0.043571431 0.018571429 0.75000006
0.08214286 0.019285716 0.75000006
0.087619059 0.018809525 0.75000012
0.093571432 0.018571429 0.75000006
0.097385474 0.017996367 0.75036371
0.10223366 0.017874287 0.75066668
0.10685714 0.018405715 0.75050002
0.11214286 0.019285716 0.75000012
0.1282143 0.018928573 0.75000006
0.13242859 0.018714286 0.75000006
0.13756794 0.017322225 0.75153345
0.1419943 0.01721143 0.75300002
-0.12071429 0.02357143 0.75000006
-0.11642858 0.022500003 0.75000006
-0.11225894 0.022167303 0.75077778
-0.10772886 0.021919142 0.75210011
-0.10256123 0.021781363 0.75157148
-0.09705326 0.022038702 0.75081819
-0.092459649 0.022356786 0.7511251
-0.087248296 0.022171143 0.75089997
-0.08230149 0.022187408 0.75144452
-0.07723739 0.022171348 0.75091666
-0.072277151 0.023044001 0.75140005
-0.067559578 0.021725291 0.75200009
-0.062150721 0.02203119 0.75225002
-0.057428665 0.022309178 0.75118178
-0.052223653 0.022893813 0.7511667
-0.04753932 0.023004083 0.75142866
-0.042720716 0.022523573 0.75075001
-0.037380952 0.022619048 0.75000006
-0.032142859 0.02357143 0.75000012
-0.026904762 0.02357143 0.75000012
-0.022857144 0.02357143 0.75000006
0.019285716 0.02357143 0.75000006
0.022163179 0.022878099 0.75066674
0.027191114 0.023137145 0.75133342
0.032228574 0.023634288 0.75200003
0.036772575 0.02332343 0.75120008
0.042496007 0.023037715 0.75120008
0.047466125 0.022764083 0.7502858
0.052033812 0.022352383 0.75100005
0.057147939 0.022653546 0.75111115
0.0625 0.023214286 0.75000006
0.067232385 0.022888573 0.75100005
0.072206989 0.02216381 0.75066674
0.077483505 0.023126667 0.75100011
0.082445353 0.022356309 0.75112498
0.087306753 0.022186428 0.7514168
0.092224769 0.02216381 0.75066668
0.097178318 0.021728361 0.75211108
0.10248335 0.021500476 0.75250006
0.10750001 0.021500478 0.75250006
0.11291215 0.021148812 0.75275004
0.11739584 0.021475596 0.75162506
0.12241428 0.02219397 0.75166672
0.12748224 0.022202542 0.75200003
0.13255398 0.022212381 0.75233346
0.13742988 0.022090822 0.75263643
0.1419943 0.021514289 0.75300002
-0.14500001 0.028571431 0.75000006
-0.14215086 0.027601907 0.75080001
-0.13758233 0.0274981 0.75128573
-0.13234827 0.027187465 0.7511667
-0.12738709 0.027197441 0.75143754
-0.12232053 0.027379571 0.75109094
-0.11744459 0.027215064 0.75193751
-0.11259144 0.025100004 0.75300002
-0.091077149 0.025100002 0.75300002
-0.08964286 0.025100002 0.75300002
-0.081037149 0.025100002 0.75300002
-0.077810004 0.025458572 0.75300002
-0.073148578 0.025100002 0.75300002
-0.056868576 0.025566986 0.75266671
-0.052339531 0.025811588 0.75283337
-0.04733143 0.025817145 0.75300002
-0.042083003 0.026109936 0.75257152
-0.037266515 0.026517306 0.7525
-0.032237887 0.026507938 0.7522223
-0.027239367 0.026523178 0.75266665
-0.022221589 0.026523177 0.75266677
-0.017748041 0.026822755 0.75211114
-0.013023049 0.028483242 0.75140005
-0.0066666673 0.028809525 0.75000012
-0.0035714288 0.029285716 0.75000006
0.0078571429 0.028928574 0.75000006
0.012857143 0.029285716 0.75000006
0.018061226 0.028061228 0.75000012
0.022202384 0.027215876 0.75199997
0.027029529 0.026378963 0.75227273
0.032242853 0.026511431 0.75233334
0.037270561 0.026520241 0.75258338
0.042111073 0.0263425 0.75262511
0.047300003 0.025800478 0.75250006
0.05235143 0.025100004 0.75300002
0.057798736 0.025555875 0.7523334
0.062518686 0.026333693 0.75237501
0.067351744 0.026511431 0.75233334
0.072248578 0.027037144 0.75245458
0.07703311 0.026633892 0.75241661
0.08247143 0.025100004 0.75300002
0.088208571 0.025100002 0.75300002
0.091794297 0.025100002 0.75300002
0.12406572 0.025100002 0.75300002
0.12765144 0.025100002 0.75300002
0.13267145 0.025100004 0.75300002
0.13554001 0.025100002 0.75300002
-0.14512891 0.032171432 0.75066674
-0.14309388 0.032060683 0.75285727
-0.13721335 0.031315241 0.75300002
-0.13295829 0.031410858 0.75300002
-0.12263144 0.030837145 0.75300002
-0.010757144 0.030837145 0.75300002
-0.0069274083 0.031770371 0.75244451
-0.0021458203 0.032182224 0.75088888
0.0019664287 0.032355003 0.75075001
0.0071611116 0.032222543 0.75183338
0.012169843 0.032216191 0.75166672
0.016901907 0.031942856 0.75200003
0.020797145 0.031554289 0.75300002
-0.14500001 0.035000004 0.75000006
-0.14313498 0.036934428 0.75200003
-0.0014342858 0.035140004 0.75300002
0.0024367622 0.035695054 0.75260007
0.0050200005 0.035857148 0.75300002
-0.14131556 0.04122667 0.75066674
-0.13809073 0.042805955 0.75225008
-0.13620096 0.046285044 0.75100011
-0.13335429 0.048270095 0.75200003
-0.13187066 0.051746197 0.75116676
-0.12963049 0.05371429 0.75200003
-0.1307143 0.055714287 0.75000006
-0.12893513 0.057303693 0.75212502
-0.12714954 0.06250082 0.75185722
-0.12575525 0.065620646 0.75166672
-0.12297255 0.068530008 0.75216675
-0.11976287 0.06956286 0.75300002
-0.12115192 0.071832865 0.75050002
-0.11777144 0.072640575 0.75220013
-0.11600834 0.076682627 0.75075001
-0.11370857 0.077860579 0.75280005
-0.11500001 0.081428573 0.75000006
-0.11285037 0.082565993 0.75200003
-0.11204423 0.086101912 0.75071436
-0.10921858 0.088448577 0.75200003
-0.10714044 0.092347622 0.75166672
0.31250784 0.092461906 0.75260013
-0.10604572 0.09556064 0.75066674
-0.1032 0.098128855 0.75109094
0.30824691 0.097831629 0.75200003
0.31140289 0.095211118 0.75166672
-0.10156286 0.10227906 0.75100005
-0.099291198 0.10287549 0.75275004
0.30432597 0.10287548 0.75275004
0.30622351 0.10175683 0.75066674
-0.10071429 0.105 0.75000006
-0.096881814 0.10689763 0.75130004
-0.093166202 0.10893334 0.75250006
0.2990486 0.10972287 0.75300002
0.30217931 0.10740639 0.75146157
-0.091589853 0.1123419 0.75133342
-0.088601373 0.1127747 0.75285727
0.29812819 0.11274318 0.75188893
0.30050415 0.1112889 0.75066674
-0.090714291 0.1157143 0.75000006
-0.087719798 0.116829 0.75155556
0.29438716 0.11868715 0.75300002
0.29740059 0.1171607 0.75142854
-0.085684776 0.12201887 0.75100011
-0.083905719 0.12406572 0.75300002
0.29344168 0.12271947 0.75228584
0.29614288 0.12128573 0.75000006
-0.085000008 0.12500001 0.75000006
-0.082642235 0.12798192 0.75166661
0.28796279 0.1276149 0.75163645
0.2914542 0.1263679 0.75085723
-0.081371814 0.13199735 0.75080007
-0.079217866 0.13298549 0.75275004
0.28434718 0.13303001 0.75300002
0.28623813 0.13203838 0.75057149
-0.077234581 0.13687745 0.75090009
-0.073767625 0.13965715 0.75200003
0.27825147 0.13984287 0.75300002
0.28251693 0.13783672 0.75272745
0.28595242 0.1354762 0.75000012
-0.072009154 0.14216001 0.75160003
0.27791685 0.14282715 0.75210011
0.28096256 0.14083937 0.75066674
-0.068446271 0.14804628 0.75200003
0.274216 0.14875738 0.75275004
0.27644333 0.14690025 0.75149995
-0.066321753 0.15244716 0.75150007
-0.063252002 0.15303831 0.75300002
0.27313742 0.15277787 0.75224996
0.27500001 0.15142858 0.75000006
-0.061588444 0.15657674 0.75071436
-0.058756787 0.15763965 0.75237501
0.26462573 0.15992287 0.75300002
0.2674506 0.15853538 0.75237501
0.27035984 0.15643449 0.75140005
-0.057360005 0.16250174 0.75100005
-0.053785719 0.16422573 0.75300002
0.26269391 0.16280459 0.75240004
0.26571175 0.16133335 0.75066674
-0.055000003 0.16500001 0.75000006
-0.052759688 0.1680651 0.75200003
0.25858825 0.16806956 0.75166672
0.26134652 0.16579144 0.75100005
-0.050714288 0.17142859 0.75000006
-0.048792385 0.17270325 0.75120008
0.25458574 0.17426573 0.75300002
0.25626516 0.17184572 0.75120008
-0.046033658 0.17674224 0.75133342
-0.044343814 0.17952478 0.75100005
0.24939954 0.1791662 0.75250006
0.25264549 0.17774434 0.75227278
-0.041500956 0.18174955 0.75133342
-0.039416671 0.1834662 0.75250006
0.24823233 0.18265057 0.75258338
0.2514286 0.18214288 0.75000012
-0.03763495 0.18732356 0.75130004
0.23809144 0.18860859 0.75300002
0.24303587 0.18792677 0.75236368
0.24668308 0.18646212 0.75077778
-0.035415478 0.19103074 0.75125003
-0.033087622 0.19294059 0.75200003
0.23805182 0.19216228 0.75287509
0.24182835 0.1924631 0.75125003
0.24500002 0.19142859 0.75000006
-0.031776197 0.19648506 0.75100005
-0.028873336 0.19925049 0.75166672
0.23392384 0.19903812 0.75266671
0.23711114 0.19771145 0.75216675
0.24193408 0.19729735 0.75113338
0.24625002 0.19803573 0.75000006
0.26225942 0.19865939 0.75033343
-0.026074426 0.20174684 0.75157148
-0.023162065 0.20248747 0.75216675
0.23368615 0.20254165 0.75300002
0.23705904 0.20268191 0.75199997
0.24212947 0.2026483 0.7526924
0.24775614 0.20267475 0.75245452
0.25256145 0.20285366 0.75210011
0.25750145 0.20262013 0.75229996
0.26146108 0.20244753 0.7511251
-0.025000002 0.20714287 0.75000006
-0.022516299 0.20710805 0.75188887
0.23402762 0.20629811 0.75300002
0.23726879 0.20716296 0.75266671
0.24196401 0.20610689 0.75300002
0.24598001 0.20582001 0.75300002
0.25745431 0.20582001 0.75300002
-0.025857145 0.2127143 0.75000006
-0.022832654 0.21246043 0.75257152
0.23880859 0.21012287 0.75300002
-0.042566534 0.21875703 0.7502858
-0.037042417 0.21768816 0.75130767
-0.032212503 0.21672037 0.751625
-0.027233336 0.21715063 0.75250006
-0.022948574 0.21729431 0.75300002
-0.042454287 0.2215848 0.75133342
-0.037530478 0.22223462 0.75300008
-0.02223143 0.22016287 0.75300002
0.19630001 0.0093476195 0.75500005
0.22290477 0.0093476195 0.75500005
0.22660065 0.0093517471 0.75533342
0.23028764 0.0093847625 0.75800002
0.15100002 0.013661906 0.75500005
0.15819049 0.013661906 0.75500005
0.16250476 0.013661906 0.75500005
0.16764908 0.012951906 0.75550008
0.17298923 0.012716616 0.75577784
0.17778119 0.012416429 0.75575006
0.18210541 0.012545398 0.75511122
0.18771319 0.012945874 0.75516677
0.19245192 0.012092287 0.75570005
0.19752277 0.012374893 0.7561819
0.20269683 0.012100953 0.7554546
0.2076856 0.012418929 0.75587505
0.21250114 0.012247967 0.75636369
0.21771406 0.012376885 0.75627279
0.222349 0.01223344 0.75555563
0.22700173 0.012251429 0.75666666
0.23064858 0.012272382 0.75800002
0.14452858 0.017257143 0.75500005
0.14742121 0.017259128 0.75508344
0.15249601 0.017137526 0.75600016
0.15742382 0.017293971 0.75650001
0.16258208 0.016436625 0.75627279
0.16805589 0.015868574 0.75733328
0.17246 0.015875239 0.75766671
0.17758858 0.015881905 0.75799996
0.18266448 0.01643705 0.75690001
0.18771204 0.016720174 0.75727272
0.19274859 0.015881907 0.75800002
0.19790505 0.015778778 0.75800002
0.20276669 0.015875239 0.75766671
0.20668001 0.015721526 0.75719994
0.21224001 0.015160001 0.75800002
0.21729335 0.015160001 0.75800008
0.22219859 0.015150001 0.75750005
0.22720128 0.015146668 0.7573334
0.23028764 0.015160001 0.75800002
-0.10641906 0.023728574 0.75500005
-0.10210477 0.023728574 0.75500005
-0.099947624 0.023728574 0.75500005
-0.08556667 0.023728574 0.75500005
-0.066871434 0.023728576 0.75500005
-0.063995242 0.023728574 0.75500005
0.098509535 0.023728576 0.75500005
0.10282382 0.023728576 0.75500005
0.1071381 0.023728576 0.75500005
0.11234652 0.023285877 0.7561667
0.11730763 0.023749527 0.75566673
0.12008096 0.023728574 0.75500005
0.14309049 0.023009527 0.75500005
0.14747049 0.022300323 0.75533342
0.1517444 0.021801524 0.75800002
0.15665334 0.020935239 0.75800002
-0.11202807 0.027827622 0.75515395
-0.10716176 0.02733032 0.75516671
-0.10234719 0.027495366 0.75573355
-0.097410917 0.027192894 0.75592315
-0.092977926 0.02754762 0.75572735
-0.087657094 0.027493402 0.75566673
-0.08288113 0.027541041 0.75554556
-0.077571593 0.027936032 0.75533342
-0.072528094 0.027774384 0.75550008
-0.06766317 0.027353751 0.75581259
-0.062598586 0.027342856 0.75550008
-0.057841908 0.028346097 0.75540006
-0.052513972 0.028774923 0.75533342
-0.047465358 0.028766787 0.75512505
-0.042711433 0.028905718 0.75500005
-0.037390478 0.029480955 0.75500005
-0.032357149 0.029480955 0.75500005
-0.027323812 0.029480955 0.75500005
-0.022290479 0.029480955 0.75500005
-0.017257143 0.029480955 0.75500005
0.02775524 0.029193336 0.75500005
0.032357149 0.029480955 0.75500005
0.037390478 0.029480955 0.75500005
0.04279786 0.029131193 0.7552501
0.047480837 0.028776549 0.75537509
0.052521385 0.028059999 0.75544453
0.057258766 0.028342191 0.75530005
0.062197622 0.029121431 0.75500005
0.067590483 0.029480955 0.75500005
0.074061908 0.029480955 0.75500005
0.078762144 0.029131193 0.7552501
0.082775883 0.028072808 0.75577784
0.087340489 0.027475718 0.75583333
0.092519537 0.027961429 0.75600004
0.097441174 0.027201468 0.75615394
0.10243799 0.027520377 0.75640017
0.10737509 0.027386349 0.75666666
0.1117981 0.025965713 0.75733328
0.11795286 0.025610955 0.75750005
0.12277001 0.026803717 0.75650001
0.1274962 0.028094292 0.75633335
0.13244985 0.028075082 0.75583339
0.13765159 0.027558273 0.75600004
0.14202224 0.027014283 0.75633347
0.14710651 0.025960796 0.75716662
-0.14093333 0.033076193 0.75500005
-0.13769762 0.033435717 0.75500005
-0.13158572 0.032973472 0.75500005
-0.12732764 0.032372065 0.75533342
-0.12221681 0.032500088 0.75527281
-0.11720477 0.032357145 0.75500005
-0.11230739 0.032396585 0.75591677
-0.10727999 0.032400001 0.75600004
-0.10239667 0.032450639 0.75716674
-0.098034672 0.031908195 0.75800002
-0.092787817 0.031603049 0.75760001
-0.080612704 0.031523176 0.75800008
-0.076832861 0.031382382 0.75750005
-0.072565913 0.032461148 0.75739998
-0.067317471 0.031495877 0.75733328
-0.062362861 0.031361908 0.75700003
-0.057195242 0.031482227 0.75700009
-0.052629527 0.031722862 0.75700009
-0.047582861 0.031722862 0.75699997
-0.042499375 0.031694289 0.75633335
-0.037288833 0.032309093 0.75690913
-0.032418836 0.032420743 0.75644445
-0.027354447 0.032393813 0.75583339
-0.022339685 0.03242984 0.75666666
-0.017540317 0.031958524 0.75688887
-0.012426072 0.032597978 0.75637501
-0.0079171434 0.033825081 0.75566673
0.018695239 0.033795241 0.75500005
0.022710344 0.032575104 0.7552858
0.027360003 0.032400001 0.75600004
0.032400001 0.032400001 0.75600004
0.037410565 0.032301299 0.75672722
0.042536195 0.031722862 0.75700009
0.047630243 0.031753574 0.75774997
0.052884903 0.032061499 0.75771433
0.057649843 0.032429524 0.75666666
0.062640004 0.032400001 0.75600004
0.067354284 0.032308575 0.75719994
0.07231921 0.031716034 0.75683343
0.077538781 0.031613883 0.75685716
0.082297146 0.031763814 0.75800002
0.08735048 0.031041909 0.75800008
0.091681913 0.031041909 0.75800008
0.098179057 0.031041907 0.75800002
0.10034477 0.031041907 0.75800002
0.1335524 0.031041909 0.75800008
0.13788381 0.031041907 0.75800002
0.14077143 0.031041907 0.75800002
-0.14093335 0.037390478 0.75500005
-0.1373681 0.037399054 0.75516671
-0.13240315 0.03741923 0.7555626
-0.12769282 0.037280347 0.75672734
-0.12256192 0.036048576 0.75700003
-0.1174635 0.036753654 0.75666666
-0.11246858 0.037491426 0.75700009
-0.1074219 0.037491437 0.75700009
-0.10294572 0.035839051 0.75766671
-0.033207621 0.035373334 0.75800002
-0.027273906 0.035643432 0.75760001
-0.021657143 0.035373334 0.75800002
-0.01949143 0.035373334 0.75800002
-0.0061328579 0.035710953 0.75750005
-0.0025209526 0.03636048 0.75600004
0.0021651431 0.038231812 0.75740004
0.0073697446 0.037516858 0.75638473
0.011922963 0.036893126 0.75622225
0.017523492 0.036246464 0.75611115
0.022500107 0.03691408 0.75666672
0.027100572 0.036471624 0.7568
0.03245778 0.036064133 0.75733328
0.036095239 0.035373334 0.75800002
0.058185529 0.035662096 0.75800002
0.062483814 0.035932194 0.75760001
-0.13697858 0.041345242 0.75500005
-0.13240612 0.042456429 0.75558341
-0.12910733 0.042556196 0.7573334
-0.11189525 0.041148573 0.75800002
-0.13171144 0.047045454 0.75572735
-0.12922096 0.045480002 0.75800002
-0.1304062 0.051872861 0.75650001
-0.12820166 0.053296909 0.75625002
-0.12667763 0.057579529 0.75575006
-0.12371757 0.058613338 0.7571429
-0.12583335 0.061838098 0.75500005
-0.12234525 0.062612228 0.75566673
-0.11867476 0.063124284 0.75750005
-0.12167884 0.066551857 0.75500005
