# .PCD v0.7 - Point Cloud Data file format
VERSION 0.7
FIELDS x y z
SIZE 4 4 4
TYPE F F F
COUNT 1 1 1
WIDTH 1408
HEIGHT 1
VIEWPOINT 0 0 0 1 0 0 0
POINTS 1408
DATA ascii
0.23740953 0.054159053 0.77900004
0.24332669 0.052903622 0.77800006
0.24650307 0.052135814 0.77540004
-0.095623814 0.057076514 0.77833337
-0.093980007 0.055500004 0.77700001
-0.070300013 0.057717148 0.77700001
-0.068193339 0.058723625 0.7766
0.23272637 0.057894297 0.7784546
0.23734061 0.057667628 0.77699995
0.24187696 0.056920584 0.77620006
-0.067281589 0.062598735 0.77633333
-0.06372191 0.063720956 0.778
0.22305572 0.06359762 0.77875006
0.22779267 0.062492561 0.77863652
0.23206122 0.062452927 0.77671444
0.2354524 0.062738106 0.77500004
-0.063230157 0.066182546 0.77500004
0.20921716 0.068997145 0.77900004
0.21292669 0.068997145 0.77900004
0.21785925 0.068071432 0.77860004
0.22205605 0.067283213 0.77790922
0.22762477 0.066514291 0.77600002
0.23151588 0.066182546 0.77500004
0.20402382 0.074932389 0.77900004
0.20796727 0.073047839 0.77838475
0.21248125 0.0726455 0.77653861
0.21724404 0.07192184 0.77607703
0.22105953 0.071226195 0.77500004
0.1995724 0.078641906 0.77900004
0.20307164 0.078116 0.77820009
0.20748153 0.077491246 0.77640003
0.21183336 0.076023817 0.77500004
-0.061806671 0.084460638 0.77566671
0.17360573 0.083835244 0.77900004
0.17761202 0.083241723 0.77900004
0.18250859 0.083835244 0.77900004
0.18621811 0.083835244 0.77900004
0.19363716 0.083835244 0.77900004
0.19773106 0.083238296 0.77760011
0.20241536 0.08194641 0.77645463
0.20721583 0.081084393 0.7754001
0.16952525 0.088657632 0.77900004
0.17278309 0.087558173 0.77761549
0.1772 0.086627454 0.77633333
0.18274416 0.087034725 0.77627271
0.1873813 0.08739271 0.77766675
0.19246072 0.087346196 0.77725011
0.19576351 0.086430162 0.77566671
-0.055945721 0.092419371 0.77633333
0.16824929 0.093018815 0.7782501
0.17214169 0.091981195 0.77575004
0.1882143 0.091523811 0.77500004
0.19195372 0.091174662 0.77579999
-0.054159053 0.098673336 0.77900004
0.16401429 0.098851435 0.77750003
0.16720209 0.096917629 0.77683342
0.17050001 0.095214292 0.77500004
-0.05263143 0.10204604 0.77833337
0.15789083 0.10298987 0.7790001
0.162147 0.10246667 0.77683342
-0.049257718 0.10813124 0.77660006
0.15392973 0.10770571 0.77780002
0.1572978 0.10780199 0.77653843
0.16151373 0.10624706 0.77580005
-0.046813201 0.11233213 0.77671438
0.13428476 0.11499525 0.77900004
0.13812223 0.11415493 0.77833337
0.14233544 0.11342287 0.77840006
0.14768238 0.1135862 0.7782501
0.15263829 0.11266535 0.7772668
0.15691906 0.11204287 0.77500004
-0.046560004 0.11677048 0.77600002
0.12983334 0.11870477 0.77900004
0.13294333 0.11811 0.77875006
0.13772747 0.11773509 0.77750009
0.14269662 0.11755822 0.77633333
0.14766595 0.11665644 0.77525002
0.15204763 0.11588096 0.77500004
0.12340349 0.12340349 0.77900004
0.12771943 0.12246277 0.7784546
0.13239801 0.12257966 0.77663642
0.1369755 0.12192788 0.77590919
0.1417143 0.12030953 0.77500004
-0.041440003 0.1295 0.77700001
-0.039220002 0.1295 0.77700001
0.11825714 0.12937906 0.77850002
0.12254731 0.12772986 0.77750009
0.1273399 0.12704337 0.77646679
0.13216168 0.12699261 0.77525008
0.13507144 0.12695238 0.77500004
-0.041016668 0.13191953 0.77600002
-0.039186355 0.13234508 0.77633333
0.11400604 0.13379017 0.77900004
0.1177601 0.1325728 0.77766669
0.12229675 0.13137186 0.77557147
0.1262143 0.13064286 0.77500004
0.093153343 0.1391108 0.77833337
0.097572394 0.13890594 0.77811128
0.10184477 0.1386762 0.77866673
0.10787714 0.13901716 0.77850002
0.11230833 0.13737157 0.77728575
0.11727498 0.1362758 0.77585721
-0.037837144 0.14318763 0.77900004
0.083835244 0.14392954 0.77900004
0.087603554 0.14308719 0.77772731
0.092413425 0.14214572 0.77627277
0.097533181 0.14260429 0.77583337
0.10297083 0.14224599 0.77681822
0.10724877 0.14194417 0.77663642
-0.034780003 0.14874001 0.77700001
0.083194867 0.14788915 0.77720004
0.0866962 0.1460703 0.77540004
-0.034780003 0.15022001 0.77700001
0.079383813 0.15209049 0.77900004
0.08184211 0.15243886 0.77700007
0.078117363 0.15763505 0.77788889
0.08087334 0.15694574 0.77550006
-0.030261906 0.16311906 0.77500004
-0.028860003 0.16354001 0.77700001
0.07443779 0.16346636 0.77900004
0.077467628 0.16208415 0.77633339
-0.028107625 0.16716668 0.77666676
0.068255246 0.16915429 0.77900004
0.072766289 0.16761638 0.77806687
0.076653533 0.16645162 0.77540004
-0.025900003 0.17167811 0.77700007
-0.023828004 0.17330573 0.77700007
0.06263797 0.17371172 0.77900004
0.067556582 0.17289163 0.77780008
0.071964011 0.17200498 0.77580005
-0.021447433 0.17706496 0.77660006
-0.018976193 0.17917113 0.77633333
0.053417146 0.17879906 0.77900004
0.057867281 0.17831959 0.77809101
0.062510215 0.1774848 0.77742875
0.066731542 0.17721173 0.77566671
-0.019052383 0.18210839 0.77540004
0.048520576 0.18414077 0.77900004
0.052760266 0.18253915 0.77827281
0.05750205 0.1824055 0.77638477
0.062738098 0.18083334 0.77500004
-0.017497461 0.18730478 0.77633333
0.048073713 0.18741773 0.77660006
0.051934607 0.18632573 0.77533334
0.056095243 0.18526192 0.77500004
-0.015526667 0.19297302 0.77633333
0.034869526 0.19363716 0.77900004
0.038410481 0.19353698 0.77860004
0.042215351 0.19330488 0.77766669
0.04559461 0.1905089 0.77633333
-0.014096191 0.19759397 0.77900004
0.028934287 0.1995724 0.77900004
0.032825444 0.19748193 0.77828586
0.037604071 0.19703941 0.77700013
0.041386671 0.19658573 0.77600002
-0.012949049 0.20201811 0.77700007
0.0077280276 0.20443363 0.77814299
0.012738442 0.20334037 0.7784546
0.01668286 0.20426288 0.77850002
0.022504447 0.20402382 0.77900004
0.027793573 0.2030855 0.77824998
0.031591855 0.20161475 0.77544451
0.036904763 0.20002383 0.77500004
-0.011107144 0.20733193 0.77750003
-0.0086555565 0.20896986 0.77900004
-0.0022257143 0.20995906 0.77900004
0.0025543917 0.20825048 0.7787779
0.0072258608 0.20766968 0.77684623
0.01254762 0.20666668 0.77500004
0.017744083 0.20732383 0.77628583
0.02271143 0.20702602 0.77700001
0.026492003 0.20616174 0.77700007
-0.0072380225 0.21285827 0.77792317
-0.0023557579 0.21306488 0.77754551
0.0022202118 0.21244034 0.77722222
0.0072351112 0.21249649 0.77526665
0.018452382 0.2107262 0.77500004
0.022142859 0.21109526 0.77500004
-0.006653334 0.21580097 0.77600002
-0.0013289526 0.21696325 0.77540004
0.0020691433 0.21683507 0.77600002
0.0069380961 0.21685238 0.77500004
0.23162097 -0.18544573 0.78200006
0.22474667 -0.18144001 0.78400004
0.22767097 -0.18183953 0.78250003
0.23135978 -0.18222359 0.78175008
0.21877335 -0.17546667 0.78400004
0.22225046 -0.1775292 0.7826668
0.22738644 -0.17834312 0.78025007
0.23251431 -0.17828572 0.78000009
0.23548573 -0.17754287 0.78000003
0.21429335 -0.17173335 0.78400004
0.21823408 -0.17185609 0.78266668
0.22122288 -0.17249145 0.78000003
0.21361336 -0.16835496 0.78333342
0.21732907 -0.16746525 0.78149998
0.22062859 -0.16862859 0.78000003
0.21468572 -0.16417144 0.78000003
0.2169143 -0.16417144 0.78000003
0.26371431 -0.0014857143 0.78000003
0.26614988 -0.0017371431 0.78133339
0.2641651 0.002233651 0.78133339
0.2643905 0.006702858 0.78200006
0.2662074 0.0079782326 0.78171432
0.26759344 0.012671492 0.7826668
0.2625778 0.018168891 0.7840001
0.26669762 0.01723033 0.78138465
0.27114287 0.018571429 0.78000003
0.25861374 0.022967199 0.78355557
0.26237744 0.021944033 0.78215396
0.26679906 0.020808574 0.7803334
0.27114287 0.020057144 0.78000003
0.24864002 0.029120002 0.78400004
0.25241661 0.028448166 0.78314292
0.25796109 0.027584603 0.78283346
0.26074287 0.026742859 0.78000003
-0.083626673 0.033600003 0.78400004
-0.077425532 0.033862859 0.78319997
0.24813941 0.032564681 0.78200006
0.25255203 0.032552768 0.78039998
0.25758573 0.031757142 0.78000009
-0.090844452 0.039075561 0.7840001
-0.086855248 0.037836827 0.78244448
-0.082960725 0.036456905 0.78125006
-0.078197151 0.035375241 0.78200006
-0.073542863 0.039371431 0.78000003
0.24675536 0.037587941 0.78066677
0.25034288 0.036400001 0.78000003
-0.09753406 0.042705007 0.78325003
-0.092652068 0.042474288 0.78244448
-0.088039741 0.041948304 0.78057152
-0.072490163 0.042451434 0.78200006
0.24416001 0.044053335 0.78400004
0.24581936 0.042192113 0.78114295
-0.10054287 0.045430478 0.78200006
-0.097265914 0.047144003 0.78080004
-0.093316205 0.046604358 0.78028578
-0.072240956 0.046548575 0.78200006
0.23869011 0.048887078 0.78285718
0.24303882 0.047956198 0.78127271
0.24502668 0.045430478 0.78200006
-0.098389208 0.052292705 0.78066671
-0.068706036 0.053826034 0.78133339
0.22474667 0.054506671 0.78400004
0.22804382 0.05406896 0.78200001
0.2327448 0.053071536 0.78244442
0.23727414 0.051621817 0.78145462
0.24217144 0.051257145 0.78000003
-0.067814767 0.05701191 0.78250003
-0.064960003 0.058986671 0.78400004
0.21877335 0.058986671 0.78400004
0.22266915 0.057567813 0.78300005
0.22750698 0.057247944 0.78066677
0.23251431 0.055714291 0.78000003
-0.06636858 0.061147623 0.78300005
-0.064877145 0.061147623 0.78300005
0.20832002 0.063466668 0.78399998
0.21273169 0.063632622 0.78375
0.21795316 0.063271247 0.78160006
0.22183953 0.061177146 0.78100002
0.22582859 0.060171433 0.78000003
0.20366542 0.069380961 0.78333342
0.20720172 0.067525916 0.78260005
0.21207558 0.066970803 0.78133339
0.21635494 0.06691429 0.78066671
0.20312384 0.072427057 0.78240001
0.20626669 0.07106667 0.78000009
-0.061517339 0.077008389 0.78200006
-0.058986671 0.078400008 0.78400004
0.16874668 0.079893336 0.78400004
0.17262994 0.078797564 0.78371435
0.17733818 0.078461662 0.78327274
0.18263468 0.079296008 0.78400004
0.19438224 0.079395562 0.7840001
0.19785924 0.077828407 0.78236371
0.20169954 0.07554429 0.78149998
-0.060325719 0.0841581 0.78200006
-0.058986671 0.083626673 0.78400004
0.16737835 0.082976989 0.78363639
0.17222095 0.082243815 0.78080004
0.1772843 0.081394769 0.78049999
0.18215621 0.081783503 0.78066671
0.18781462 0.082524449 0.78222227
0.19239557 0.082335457 0.78200001
0.19661096 0.081394769 0.78049999
-0.060222864 0.086988583 0.78066671
-0.058175791 0.087740414 0.78171438
0.16352001 0.088106669 0.78400004
0.16700175 0.087229386 0.78283346
0.17011429 0.085428581 0.78000003
-0.055857148 0.090859056 0.78200006
-0.054506671 0.094080009 0.78400004
0.15904 0.094826676 0.78400004
0.16262326 0.092821106 0.78328586
0.1663845 0.091324367 0.78142864
-0.05296699 0.097979054 0.7833333
0.15768263 0.09796834 0.78375
0.16178535 0.097339235 0.78140008
-0.051658101 0.1018289 0.78233337
-0.049327239 0.10327544 0.78240001
0.14410667 0.10378668 0.78400004
0.14746667 0.10341334 0.78400004
0.15268762 0.1027635 0.7834546
0.1561486 0.10117715 0.78000003
-0.048409529 0.10649842 0.78200006
0.13365334 0.10976001 0.78400004
0.13808247 0.10886667 0.78371435
0.14243144 0.10738097 0.78300011
0.14736244 0.10742898 0.7822668
0.15163936 0.10696339 0.78177774
0.12805334 0.11386667 0.78400004
0.13251638 0.11272418 0.78290915
0.13694668 0.11201334 0.78150004
0.14307429 0.11098286 0.78000003
0.14745715 0.11105715 0.78000003
0.1508 0.11068572 0.78000003
0.12353873 0.11831969 0.78299999
0.12724508 0.11756985 0.78133345
0.13125525 0.1157962 0.78040004
-0.042560004 0.12469335 0.7840001
-0.039573334 0.12469334 0.78400004
0.11424001 0.12469334 0.78400004
0.11756627 0.12396246 0.78342861
0.12174997 0.12174997 0.78254545
0.12554286 0.12108573 0.78000003
-0.042220004 0.12691081 0.78233337
-0.038826667 0.12618667 0.78400004
0.10976001 0.12917334 0.78400004
0.1128969 0.12782548 0.78375
0.11735811 0.12709975 0.78127271
0.12108573 0.12554286 0.78000003
0.093904778 0.13334152 0.78342861
0.097626835 0.13264969 0.78250015
0.10216289 0.13273524 0.78299999
0.10736053 0.1329186 0.78319997
0.11237992 0.13227013 0.78145462
0.11514287 0.13074286 0.78000003
-0.038479369 0.13877398 0.78200006
0.083554938 0.13801526 0.78333342
0.087522089 0.13761146 0.78181821
0.091946334 0.13673559 0.78145462
0.096942857 0.13631429 0.78000003
0.10283266 0.13657962 0.78000009
0.1077143 0.13668573 0.78000009
-0.038727619 0.14076 0.78200006
0.079825401 0.1424908 0.78333342
0.082477458 0.14237376 0.78177786
0.08721143 0.14069715 0.78000003
-0.033498101 0.14839271 0.7816667
0.078216113 0.14756434 0.78218186
0.081040643 0.14646667 0.78066671
-0.032257464 0.15211463 0.7816667
0.073920004 0.15306668 0.7840001
0.076626159 0.15223932 0.78254557
-0.030867621 0.1565724 0.78100002
-0.029120004 0.15754668 0.7840001
0.072853342 0.15775999 0.78400004
0.076244771 0.15671526 0.78233337
-0.030457145 0.16268572 0.78000003
-0.027758915 0.16282886 0.78171438
0.064960003 0.16352001 0.78400004
0.068297863 0.16272071 0.78375
0.072122253 0.16219084 0.78218186
0.07512477 0.16066192 0.78100002
-0.026388098 0.16687763 0.78049999
0.058488898 0.16899559 0.7840001
0.063011751 0.16766 0.78300011
0.067421809 0.16652867 0.7817778
0.07057143 0.16565715 0.78000003
-0.026000002 0.17011429 0.78000003
-0.022662045 0.17246343 0.78200012
0.054008894 0.17347559 0.7840001
0.057345714 0.17278191 0.78200006
0.062186673 0.17120212 0.7804445
0.066114292 0.17011429 0.78000003
-0.020082857 0.17702572 0.78100002
-0.018666668 0.17845334 0.78400004
0.044053335 0.17994668 0.78400004
0.048009906 0.17847772 0.78280002
0.052458186 0.17660053 0.78181821
0.056457147 0.17605716 0.78000003
-0.017129526 0.18469906 0.78200006
0.038378667 0.18382935 0.78400004
0.042560007 0.18293335 0.78399998
0.047340196 0.18207507 0.78160006
0.051257145 0.18051429 0.78000003
-0.015660001 0.18941049 0.78300005
0.033600003 0.18741336 0.7840001
0.037450038 0.18784928 0.78333336
0.042441435 0.18763795 0.78183335
0.045343332 0.18731858 0.78049999
-0.015600001 0.1909143 0.78000003
-0.013866286 0.19249335 0.78280008
0.0089600012 0.19488001 0.78400004
0.012992001 0.19428268 0.78400004
0.016177779 0.19438224 0.7840001
0.028112065 0.19380161 0.78366673
0.032264765 0.19227883 0.78230786
0.036904491 0.19154507 0.78171438
0.042342864 0.19091432 0.78000009
-0.012665907 0.19776002 0.78240007
0.0029866667 0.19936001 0.78400004
0.0079309093 0.19817822 0.78309095
0.012652539 0.1979773 0.78150004
0.016994478 0.19780937 0.7826001
0.022400005 0.19786668 0.78400004
0.027526859 0.19745602 0.78120011
0.031200003 0.19537143 0.78000003
-0.011653017 0.20231399 0.78100008
-0.0083907153 0.20308502 0.78325003
-0.0026133335 0.20346668 0.78400004
0.0025320002 0.20292325 0.7822001
0.0072306497 0.20158911 0.78054553
0.011142858 0.2013143 0.78000003
0.017282858 0.20162812 0.78050011
0.022254948 0.20177995 0.78092313
0.026517462 0.20098984 0.78066671
-0.006826032 0.20679271 0.78200001
-0.002233651 0.20695239 0.78166664
0.0012380953 0.20626669 0.78000009
-0.0052000005 0.21022859 0.78000003
-0.0022285716 0.21022859 0.78000003
0.22808701 -0.19103239 0.78866673
0.23114669 -0.19137144 0.78800005
0.22453478 -0.18623668 0.78850007
0.22773212 -0.18761377 0.78842866
0.23114638 -0.18837017 0.78800005
0.21838669 -0.18086478 0.78800005
0.22251512 -0.18266343 0.78742862
0.22756574 -0.18389907 0.78600001
0.21347609 -0.17663008 0.78728586
0.21764083 -0.17799662 0.78711116
0.22082859 -0.17890859 0.78600001
0.21331859 -0.17310399 0.78683341
0.2168362 -0.17391811 0.78600001
0.21334288 -0.16992572 0.78600001
0.2643348 -0.0030038098 0.78850007
0.26525429 -0.0007514286 0.78900003
0.26452923 0.0017520636 0.78833342
0.26525429 0.0037571432 0.78900003
0.2643348 0.0090114288 0.78850007
0.26541716 0.0072514294 0.78800005
0.25924286 0.013525715 0.78900003
0.26280937 0.012891084 0.78781825
0.25796518 0.01754743 0.78740007
0.2622014 0.016581226 0.78628582
-0.081905723 0.024797145 0.78900003
-0.078900002 0.024797145 0.78900003
0.24722002 0.024797147 0.78900003
0.25239283 0.02340286 0.788091
0.25660774 0.022222331 0.78655559
-0.086414292 0.028554287 0.78900003
-0.082356587 0.02810343 0.78900003
-0.078298859 0.028103432 0.78900003
0.24787103 0.027763283 0.78788894
0.2518943 0.026574288 0.78600001
0.25526288 0.026200002 0.78600001
-0.091674291 0.033814289 0.78900003
-0.08764644 0.032467384 0.78825003
-0.082422651 0.031751115 0.78755569
-0.077558868 0.031653337 0.78760004
0.24405953 0.033041432 0.78850007
0.24599925 0.032249048 0.78750008
-0.097037911 0.038243428 0.78740001
-0.09260349 0.036922861 0.78766668
-0.088580959 0.035681911 0.78600001
-0.073058672 0.038554288 0.78760004
-0.069882862 0.039825715 0.78900003
0.23820285 0.039224572 0.78900003
0.24315229 0.037845038 0.78800005
0.24606144 0.036328096 0.78650004
-0.095068574 0.041171432 0.78600001
-0.071385719 0.04358286 0.78900003
-0.069882862 0.044334289 0.78900003
0.23294288 0.04358286 0.78900003
0.23724985 0.042794447 0.78833342
0.24266757 0.042591691 0.78709102
-0.071340486 0.046558574 0.78850007
-0.069882862 0.047340002 0.78900003
0.22868478 0.048341908 0.78900003
0.23257294 0.047264211 0.78775012
0.237169 0.04674885 0.78628582
0.24178858 0.046411432 0.78600001
-0.068322234 0.052806035 0.78833342
0.21265429 0.054854289 0.78900003
0.21756738 0.054767385 0.78775007
0.22253433 0.053268578 0.78780001
0.22757772 0.051755428 0.78760004
0.23202439 0.050479241 0.78640002
-0.066208571 0.057212383 0.78700006
0.20751002 0.058108296 0.78830004
0.21272907 0.057675719 0.78650016
0.21799216 0.057544049 0.78725004
0.22082859 0.056891434 0.78600001
0.20294803 0.063147217 0.78800005
0.20657352 0.061447151 0.78683341
0.21274403 0.060933717 0.78600001
0.21693602 0.061832007 0.78600001
0.17358001 0.069882862 0.78900003
0.17658573 0.069882862 0.78900003
0.19462001 0.069882862 0.78900003
0.1980624 0.068899289 0.78850007
0.20243056 0.066976488 0.7874617
0.20585716 0.065125719 0.78600001
-0.061202385 0.073217139 0.78850007
-0.059362862 0.074391432 0.78900003
0.16789073 0.073992141 0.78875005
0.172364 0.072914302 0.78781825
0.17747201 0.072607242 0.78760004
0.18178859 0.073264137 0.78766674
0.18727684 0.073859051 0.78866673
0.19245905 0.07270962 0.78854555
0.19783065 0.07268811 0.78683347
0.20136572 0.071862862 0.78600001
-0.062289529 0.075798102 0.78800005
-0.058401715 0.077018104 0.78820008
0.16406193 0.078399055 0.78900003
0.16776443 0.077371694 0.78736377
0.17224351 0.076136835 0.78633344
0.17741144 0.07560572 0.78600001
0.18265145 0.076728582 0.78600001
0.18792592 0.07708896 0.78740007
0.19249122 0.077145614 0.78644454
0.19650002 0.075980008 0.78600001
-0.062131431 0.080097146 0.78600001
-0.057593975 0.082434617 0.78766674
-0.054353338 0.084410489 0.78900003
0.15920144 0.084857628 0.78850007
0.16230506 0.082490899 0.78742874
0.16593336 0.080596194 0.78600001
0.18789145 0.080097154 0.78600001
0.1916343 0.080097146 0.78600001
-0.056624286 0.088122867 0.78750002
-0.054091275 0.087898269 0.78883338
0.15883647 0.088051982 0.78828579
0.16201226 0.087369002 0.78600001
-0.053869147 0.091985725 0.78780001
0.15272683 0.092838101 0.78885722
0.15743098 0.092210799 0.78716677
0.16094287 0.090577148 0.78600001
-0.051587489 0.097060412 0.78828579
0.14305596 0.098937616 0.78850007
0.14761248 0.097501986 0.78800005
0.15263592 0.09768559 0.78728586
0.15630972 0.095764957 0.78680003
0.13350382 0.10344668 0.78900003
0.13786536 0.10293915 0.78790921
0.14251767 0.10225017 0.78622234
0.14716916 0.10165601 0.78600001
0.15121144 0.10105715 0.78600001
0.12398572 0.10895715 0.78900003
0.12821636 0.10843318 0.78883338
0.1327962 0.10728657 0.78777784
0.13719323 0.10674286 0.78622228
-0.047280002 0.11032001 0.78800005
0.11835001 0.11459287 0.78900003
0.122678 0.11317006 0.78811121
0.12701651 0.1117789 0.78683347
0.13174859 0.11004001 0.78600001
-0.043733146 0.11827488 0.78900003
0.11285369 0.11804244 0.78854555
0.11782413 0.11782394 0.78800011
0.12156922 0.11707588 0.78633344
0.12501144 0.11602858 0.78600001
-0.045779049 0.12232763 0.78800005
-0.042944409 0.12245513 0.78762507
-0.039750002 0.12299858 0.78750002
0.10786397 0.12267513 0.78885722
0.11242636 0.12217191 0.78700012
0.11752572 0.12126859 0.78600001
-0.045793574 0.12762357 0.78825003
-0.043314926 0.12944129 0.78866673
-0.039775241 0.1290819 0.78800005
0.088076912 0.12864096 0.78875005
0.092373453 0.12842126 0.78855562
0.097510569 0.12826183 0.78758335
0.10289972 0.12794791 0.78750008
0.10720445 0.12744367 0.78716671
0.11113144 0.12611622 0.78666675
-0.038322859 0.13450572 0.78900003
0.083556801 0.1331268 0.78862506
0.087680645 0.13264658 0.78688896
0.091860421 0.13206939 0.78600001
0.10854287 0.13100001 0.78600001
-0.037531592 0.13761573 0.7881667
0.081537433 0.13744393 0.78690004
0.086834297 0.13549143 0.78600001
-0.03638643 0.14291881 0.78775007
0.077848688 0.14294179 0.78787506
-0.036068574 0.14652859 0.78900003
-0.032888006 0.14731735 0.78840011
-0.029305717 0.1495343 0.78900003
0.069381915 0.14903335 0.78900003
0.072983131 0.14821826 0.7877143
0.076100245 0.14620215 0.78725004
-0.03069143 0.15295812 0.78600001
-0.028930858 0.15305202 0.78700006
0.068300679 0.15296526 0.78810012
0.072132505 0.15250161 0.78622228
-0.027467048 0.15774857 0.78800005
0.063106522 0.15801668 0.78883338
0.067289017 0.15750846 0.78680015
0.071114287 0.15720001 0.78600001
-0.02688705 0.16177544 0.78860009
-0.024797145 0.16381145 0.78900003
0.05410286 0.16381145 0.78900003
0.05813086 0.16252612 0.78860009
0.062095068 0.16215552 0.78727281
0.066248581 0.16131715 0.78600001
-0.023834525 0.16797097 0.78825003
0.048842859 0.16907144 0.78900003
0.05275647 0.16781375 0.78814292
0.057372067 0.16728529 0.78688896
0.061757144 0.16580859 0.78600001
-0.021457715 0.17211601 0.78780007
0.044306193 0.17422049 0.78850007
0.047415763 0.17281282 0.78800005
0.051686581 0.17222165 0.78654557
-0.020262858 0.17636192 0.78800005
-0.017998572 0.17775002 0.78750002
0.033814289 0.17959145 0.78900003
0.037827719 0.17818467 0.78810012
0.042591173 0.17711014 0.78709102
0.046860576 0.17651317 0.78600001
-0.017282858 0.18410002 0.78900003
0.028804764 0.18359908 0.78900003
0.03256562 0.18309098 0.78790009
0.036960352 0.18194461 0.78618199
0.041920003 0.18040572 0.78600001
-0.015753336 0.18678765 0.78766674
-0.014240953 0.18887907 0.78700006
0.024421431 0.18748143 0.78900003
0.027751826 0.18751916 0.78758335
0.03134422 0.18753092 0.78628582
-0.01237881 0.19205979 0.78775007
0.0030033337 0.19449668 0.78850007
0.0079058614 0.19246775 0.78776932
0.01241397 0.19170731 0.78733337
0.017254382 0.19204678 0.78770006
0.0227149 0.19231938 0.78750008
0.027209207 0.19196479 0.78633344
-0.011613573 0.19668645 0.78675002
-0.007805048 0.19859974 0.78810006
-0.0021005718 0.19852345 0.78780001
0.0020990479 0.19752327 0.78740007
0.0059885718 0.19612573 0.78600001
0.018714286 0.19537716 0.78600001
0.022457145 0.19537716 0.78600001
-0.0063137426 0.20151104 0.78657144
-0.0019462857 0.2019646 0.78600001
0.00074857147 0.2021143 0.78600001
0.22930193 -0.1961143 0.792
0.23127335 -0.19662003 0.79100007
0.22430573 -0.19183049 0.79300004
0.22696739 -0.19265977 0.79175007
0.23127335 -0.19360667 0.79100001
0.21788621 -0.18692145 0.7930001
0.22260709 -0.18789704 0.79233342
0.22600001 -0.18908668 0.79100001
0.21405494 -0.18085366 0.79233336
0.21716425 -0.18310873 0.79214293
0.22072668 -0.18381333 0.79100001
0.21222192 -0.17597049 0.79300004
0.21168669 -0.17402001 0.79100001
0.26385874 -0.0057857148 0.79233336
0.26378858 -0.0018876191 0.79250002
0.26399904 0.0018852381 0.792
0.25904667 0.0090628583 0.79300004
0.2626105 0.0081313225 0.79211116
0.25451526 0.013594287 0.79300004
0.25777596 0.013011192 0.79200006
0.26140669 0.0113 0.79100001
0.24998383 0.018125717 0.79300004
0.25300482 0.017370475 0.7930001
0.25591812 0.016960001 0.79149997
-0.087309293 0.023947859 0.79200006
-0.082191199 0.023185715 0.79175001
-0.078314483 0.023085905 0.79220003
0.24438763 0.024137147 0.792
0.2479202 0.021878671 0.79220009
0.25214952 0.020729527 0.79150003
0.25538 0.020340001 0.79100001
-0.092390798 0.028447304 0.7930001
-0.088196665 0.02751381 0.79150003
-0.083620004 0.026366668 0.79100001
-0.076653026 0.027896827 0.79166669
0.24389859 0.028106192 0.7922501
0.24634002 0.027120002 0.79100001
-0.10019334 0.033146672 0.79100001
-0.097395487 0.032653335 0.79275006
-0.092909262 0.031974018 0.79128569
-0.089646675 0.030886669 0.79100001
-0.07608667 0.030886669 0.79100001
-0.074013337 0.033985715 0.79300004
0.24295549 0.032444526 0.79225004
-0.10032 0.036204763 0.79200006
-0.097180009 0.035406671 0.79100007
-0.072365239 0.036936667 0.79149997
0.23287334 0.038629737 0.79188889
0.23753262 0.037141699 0.79233336
0.24101812 0.035938732 0.79166669
0.22430573 0.043048576 0.79300004
0.22800596 0.042791139 0.79253858
0.23187241 0.041952383 0.79133332
-0.070060007 0.047460005 0.79100001
-0.067885712 0.048274286 0.792
0.20920096 0.049090479 0.79300004
0.21252401 0.048486289 0.79300004
0.21614917 0.047882099 0.79300004
0.22347525 0.047833335 0.79220003
0.22704776 0.04715101 0.79144442
-0.067842379 0.051635243 0.79149997
0.2083143 0.052831911 0.79250008
0.2123888 0.05224213 0.79146159
0.2179886 0.052233577 0.792
0.22213668 0.050913814 0.792
0.22524668 0.050473336 0.79100001
-0.065705717 0.055887625 0.79300004
0.19862764 0.059663814 0.79300004
0.20300458 0.058108576 0.79240006
0.2065089 0.056091752 0.79233336
0.17778306 0.063591056 0.79300004
0.18050192 0.064195246 0.79300004
0.19334096 0.064195246 0.79300004
0.19772135 0.062938668 0.79240006
0.20184362 0.061352193 0.79140007
0.1694251 0.068223178 0.7930001
0.17285219 0.067177676 0.79255563
0.17738192 0.067177676 0.79255563
0.18182358 0.067405 0.7930001
0.18738298 0.067719683 0.7930001
0.19259144 0.067340478 0.7922501
0.19687001 0.066502385 0.79124999
-0.061174288 0.070237145 0.79300004
-0.058533337 0.072349533 0.79133338
0.16335312 0.073754288 0.79224998
0.16767821 0.071478844 0.79188895
0.17176002 0.070060007 0.79100001
0.18306001 0.070920959 0.79100001
0.18779525 0.071136199 0.79100001
0.19210002 0.070060007 0.79100007
-0.056571431 0.077689528 0.79200006
0.16231525 0.077344872 0.79188889
-0.056500003 0.080606669 0.79100001
-0.054240003 0.08211334 0.79100001
0.15935525 0.083076194 0.79300004
0.16046001 0.080606669 0.79100001
-0.051290482 0.087497152 0.79200006
-0.048160192 0.087412767 0.79260004
0.14808042 0.088977836 0.79271436
0.15265861 0.088163733 0.79245466
0.15681158 0.087188445 0.79214293
-0.052023813 0.092736833 0.79166669
0.14425048 0.093649529 0.79300004
0.14768398 0.092679217 0.79116666
0.15217334 0.091153339 0.79100001
-0.050473336 0.095673338 0.79100001
-0.047302146 0.09742929 0.79149997
-0.04444667 0.096426673 0.79100001
0.13216668 0.098180965 0.7930001
0.13761525 0.097628765 0.79220009
0.14199714 0.096758425 0.79166669
0.14539334 0.095673338 0.79100001
-0.048545718 0.10086446 0.79233336
0.122915 0.10403405 0.7930001
0.12768897 0.10308649 0.79240006
0.13189963 0.10175067 0.79139996
0.13786 0.10019334 0.79100007
0.11777929 0.10834215 0.79275006
0.12213124 0.10750629 0.79159999
0.12701201 0.10682267 0.79100001
0.13032667 0.10622001 0.79100001
-0.046069525 0.11253048 0.79300004
0.11298604 0.11298604 0.79266667
0.11739439 0.11218642 0.79154557
0.1217889 0.11124223 0.79100007
-0.045953337 0.11526 0.79100001
-0.041836191 0.11797048 0.79149997
0.09213905 0.11857239 0.79300004
0.097048104 0.11819477 0.79300004
0.10303607 0.11792506 0.7930001
0.10793181 0.11803068 0.79139996
0.11194001 0.11570953 0.79149997
0.11526 0.11526 0.79100001
-0.040730476 0.12068477 0.79200006
-0.03992667 0.12128668 0.79100001
0.083831437 0.12385906 0.79300004
0.087651297 0.12258301 0.79242867
0.092777155 0.12219238 0.79200006
0.097302869 0.12219238 0.79200006
0.10258215 0.12219263 0.79200011
0.10622001 0.12204001 0.79100001
-0.038420003 0.12882 0.79100001
0.079300009 0.12914573 0.79300004
0.082457386 0.12774262 0.79250008
0.086664096 0.12671308 0.79128569
0.092660002 0.12580667 0.79100007
0.097180009 0.12580667 0.79100007
0.10170001 0.12580667 0.79100007
-0.037917785 0.13233557 0.79100007
0.078872383 0.13246 0.79250002
0.081467621 0.13183334 0.79100001
0.085126676 0.13032667 0.79100001
-0.036913335 0.13635334 0.79100001
0.074013337 0.13971905 0.79300004
0.077854462 0.13753222 0.79227275
-0.036310669 0.14298268 0.79100001
-0.033028003 0.142524 0.79179996
0.068726674 0.14425048 0.79300004
0.073210955 0.14302716 0.79250008
0.076588899 0.14137557 0.79100007
-0.031520572 0.14674649 0.79180002
-0.029417144 0.14783905 0.79200006
0.064195246 0.14878191 0.79300004
0.067574568 0.14797322 0.79214293
0.072073616 0.14619716 0.79185718
-0.027154606 0.15236413 0.792
0.058530957 0.1544462 0.79300004
0.062778279 0.15265794 0.79245466
0.065958098 0.15151477 0.79149997
-0.026366668 0.15669334 0.79100001
-0.024137145 0.15839905 0.792
0.052866668 0.15860002 0.79300004
0.057300001 0.15757906 0.79166669
0.061773337 0.15669334 0.79100001
-0.023593338 0.16257268 0.79185712
0.04455905 0.16388668 0.79300004
0.04819198 0.16312069 0.79242861
0.052263342 0.16231954 0.79150003
0.056500003 0.16121334 0.79100001
-0.021496668 0.16745146 0.79200006
0.038517144 0.16992858 0.79300004
0.042743638 0.16830157 0.79245454
0.047193911 0.16736554 0.79160005
-0.020365715 0.17197621 0.79200006
-0.018101906 0.17424001 0.79200006
0.033230476 0.17446001 0.79300004
0.037712958 0.1730324 0.792
0.042448997 0.17222658 0.79122221
0.045953337 0.17100668 0.79100001
-0.018102858 0.17650191 0.792
0.028548002 0.17808515 0.79300004
0.032438416 0.17728075 0.79211122
0.037164446 0.17602891 0.79100001
-0.016593968 0.18253621 0.792
0.0093063507 0.18387082 0.79233336
0.012839049 0.18352287 0.7930001
0.017748097 0.18314524 0.79300004
0.02314524 0.18265128 0.79250014
0.027545927 0.18177135 0.79122221
0.03138889 0.18054891 0.79100007
-0.014349525 0.18729906 0.79300004
-0.0015104762 0.18956478 0.79300004
0.0021146669 0.18775223 0.79300016
0.007390413 0.18719639 0.79193342
0.012814763 0.18694334 0.79150003
0.01733762 0.18694334 0.79150009
0.021556001 0.18692002 0.79140002
-0.011309525 0.19226065 0.79166669
-0.0075523816 0.19296335 0.7930001
-0.0022657143 0.19258571 0.7930001
0.0022604235 0.19220755 0.79144442
0.005775556 0.19109558 0.79100007
0.014313335 0.19059335 0.79100001
0.018833335 0.19059335 0.79100001
0.021093335 0.19059335 0.79100001
-0.0075333342 0.19586666 0.79099995
-0.0025613336 0.19571601 0.79100001
0.00075333338 0.19511335 0.79100001
0.22800002 -0.20140001 0.79800004
0.23060429 -0.20102143 0.79650003
0.21356001 -0.19608001 0.79800004
0.21703263 -0.1961147 0.79711109
0.22314325 -0.19674934 0.79640007
0.22711092 -0.19814521 0.7957778
0.23092858 -0.19912858 0.79500002
0.21358202 -0.19193967 0.79737496
0.21736787 -0.19180715 0.79525006
0.22198054 -0.19293378 0.79500002
0.2134143 -0.18761691 0.79675001
0.21654287 -0.18739288 0.79500002
0.21427144 -0.18398573 0.79500002
0.2628774 -0.013295477 0.79775
0.26316151 -0.0075094188 0.79733336
0.26205978 -0.0020878573 0.79699999
0.25878 0.0026600002 0.79800004
0.26191029 0.002426286 0.79619998
0.25298449 0.0083564771 0.79769999
0.25744909 0.0073641506 0.79607147
0.26242575 0.0059057148 0.79500002
-0.090440005 0.014440001 0.79800004
-0.087095998 0.013832002 0.79800004
-0.082817145 0.01291598 0.79777777
-0.077495009 0.013675715 0.79775
0.24799724 0.013059904 0.79730004
0.25219867 0.012874604 0.79522222
0.25667149 0.011357145 0.79500002
-0.095506668 0.018493336 0.79800004
-0.091960005 0.017480003 0.79799998
-0.087363496 0.017472064 0.79766667
-0.082702219 0.017449737 0.79666668
-0.077389531 0.017450478 0.79666674
-0.073121592 0.018470159 0.79700011
0.24345335 0.018493336 0.79800004
0.24705963 0.01743024 0.79575008
0.25061432 0.015900001 0.79500002
-0.10108001 0.023560002 0.79800004
-0.097506039 0.02203344 0.79777777
-0.092520967 0.022749526 0.79628575
-0.086856201 0.021069145 0.79580003
-0.082599059 0.020460002 0.79566669
-0.076620221 0.021999683 0.79655552
-0.073627621 0.022012383 0.79700011
0.23940001 0.023560002 0.79800004
0.24261421 0.022491511 0.79608339
0.24607144 0.020442858 0.79500002
-0.10089001 0.027307145 0.79650009
-0.097856045 0.027307464 0.79650009
-0.094138108 0.027004763 0.79500002
-0.07558763 0.026038414 0.79633331
-0.074292384 0.028807621 0.796
0.23408002 0.028880002 0.79800004
0.23811801 0.027938941 0.79766667
0.24133812 0.027488811 0.79625005
-0.10202858 0.032240003 0.79649997
-0.097671434 0.031042859 0.79500002
-0.074292384 0.03184 0.796
0.22838001 0.033060003 0.79800004
0.23238882 0.032655485 0.79741669
0.23725028 0.032592278 0.7958889
0.24074078 0.032269906 0.79540008
0.21280001 0.038760003 0.79800004
0.21691167 0.03836786 0.79775006
0.22344002 0.038760003 0.79800004
0.22816896 0.037344001 0.79699999
0.2322562 0.036209337 0.79540008
0.23547144 0.035585716 0.79500002
0.20900002 0.043320008 0.79800004
0.21253239 0.04283075 0.79700005
0.21755007 0.04231751 0.79676932
0.22285724 0.042426862 0.79646677
0.22714287 0.040128574 0.79500002
0.20393334 0.048893332 0.79800004
0.20785357 0.04821429 0.79725003
0.21195412 0.04651181 0.79540008
0.21805716 0.047321431 0.79500002
0.22141023 0.047483675 0.79500002
-0.067640007 0.052440003 0.79800004
0.19857718 0.052874289 0.79800004
0.20280637 0.052410584 0.79755557
0.20602892 0.052264135 0.79533339
0.2188143 0.050728574 0.79500002
-0.063840002 0.056240004 0.79800004
0.17328 0.058520004 0.79800004
0.17785268 0.058922052 0.79757148
0.18185541 0.058507465 0.79783338
0.19342001 0.057380002 0.79800004
0.19728231 0.057558987 0.79733342
0.2018213 0.056327306 0.79566669
-0.063306674 0.062547624 0.79766673
0.16492002 0.064600006 0.79800004
0.16796 0.063080005 0.79799998
0.1726739 0.062434293 0.79671437
0.17692398 0.061417632 0.79616678
0.18300477 0.062161714 0.796
0.18742645 0.062219933 0.79675001
0.19227687 0.062028941 0.79653853
0.19610001 0.061328575 0.79500002
-0.06130667 0.067640007 0.79800004
0.16383812 0.068117782 0.79766673
0.16737536 0.06729012 0.79612499
0.17035715 0.065871432 0.79500002
0.18398573 0.065871432 0.79500002
0.18625715 0.065871432 0.79500002
0.19080001 0.065871432 0.79500002
-0.058300003 0.072685719 0.79500002
0.15833335 0.073213339 0.79800004
0.1618216 0.071762122 0.79688889
0.1658143 0.07041429 0.79500002
-0.055456828 0.078247942 0.79766673
0.15377335 0.07929334 0.79800004
0.15775092 0.077853061 0.79723084
0.16015905 0.075904772 0.79700005
-0.052122857 0.083122864 0.79780006
-0.049400002 0.0836 0.79800004
0.14796335 0.083383575 0.79775
0.15265346 0.082781695 0.79744446
0.15720831 0.08246924 0.79590005
-0.049214289 0.088585719 0.79500002
0.13857333 0.088413343 0.79800004
0.14257403 0.087477587 0.79745454
0.14696057 0.086530618 0.79600006
0.15218572 0.085557148 0.79500002
0.15521429 0.085557148 0.79500002
-0.050813656 0.093283497 0.79633343
-0.048367023 0.093128696 0.79662502
0.1335281 0.093070239 0.79775
0.13735795 0.092582703 0.7968334
0.14214532 0.092236608 0.79571432
-0.049214289 0.096157148 0.79500002
0.11881334 0.099053346 0.79800004
0.1225306 0.098214418 0.79787499
0.12764947 0.097291753 0.79686677
0.132245 0.095867865 0.79575002
0.13628572 0.096157148 0.79500002
-0.046971906 0.10303667 0.79550004
0.11780405 0.10262834 0.79675001
0.12216548 0.10170977 0.79550004
0.12720001 0.10070001 0.79500002
-0.047151703 0.10741919 0.79671437
-0.044840004 0.10716002 0.79800004
0.11317609 0.10794329 0.79755551
0.11680972 0.10620439 0.79540008
-0.046243813 0.1114381 0.796
-0.043151349 0.11288571 0.7974546
0.083980002 0.11362001 0.79800004
0.08721 0.11343001 0.79799998
0.091960013 0.11400001 0.79800004
0.097233929 0.11394608 0.79762501
0.10254285 0.11317631 0.79755557
0.10756364 0.113222 0.79690909
0.11147919 0.11104545 0.79628575
-0.042039625 0.11671239 0.79680008
0.082964174 0.1178968 0.79737502
0.08720509 0.1175361 0.79622221
0.09248706 0.11720039 0.796
0.098024204 0.11650687 0.79540008
0.10189906 0.11629429 0.79550004
0.10675715 0.11584286 0.79500002
0.079192005 0.12266401 0.79800004
0.082369529 0.12256896 0.79640001
0.087071434 0.12038572 0.79500002
-0.037240002 0.12996002 0.79800004
0.073720008 0.12920001 0.79800004
0.077414237 0.1275077 0.7969287
0.08101429 0.12644286 0.79500002
-0.036971431 0.13345081 0.79766673
-0.033440001 0.13452001 0.79800004
0.073093526 0.13327031 0.79780006
0.076364651 0.13245632 0.79587507
-0.035585716 0.13704287 0.79500002
-0.033078369 0.1371951 0.79714286
0.069160007 0.13832 0.79800004
0.072610311 0.13743024 0.79645461
0.075808577 0.13569906 0.796
-0.032152928 0.1419279 0.79571432
-0.029213574 0.14341502 0.79675007
0.064559534 0.14430906 0.79750001
0.067431785 0.14252529 0.79718184
0.071200959 0.14164445 0.79533339
-0.027862046 0.14755321 0.79685724
0.053960003 0.14972001 0.79800004
0.057741195 0.1496731 0.79775006
0.062568478 0.14761344 0.79730004
0.066431433 0.14675589 0.79566669
-0.025542859 0.15149334 0.79666674
0.049400002 0.15428001 0.79800004
0.052647486 0.1531667 0.79785717
0.057432909 0.15230858 0.79636365
0.061328575 0.15067144 0.79500002
-0.025048573 0.15560476 0.79700005
-0.024228573 0.15672858 0.79500002
0.044840004 0.15884002 0.79800004
0.04841131 0.15776512 0.79737502
0.051896676 0.15682618 0.79550004
0.055271432 0.15521429 0.79500002
-0.021515559 0.16326287 0.79733342
0.038237147 0.16434446 0.79766673
0.042556703 0.16257794 0.79684621
0.046873529 0.1612507 0.79640001
-0.020477146 0.16760795 0.79633343
-0.019000001 0.16872001 0.79800004
0.028880002 0.16948001 0.79800004
0.032680005 0.16872004 0.79800004
0.037364408 0.1678592 0.79662508
0.041340005 0.16642003 0.79500002
-0.018212859 0.17226684 0.7968334
0.023560002 0.17328 0.79800004
0.027724687 0.17280868 0.79758334
0.032442003 0.17236754 0.79590005
0.036120322 0.17100477 0.79566669
-0.015955001 0.17778358 0.79775006
0.0086594289 0.17911772 0.79759997
0.012723928 0.17870536 0.79762501
0.017625431 0.1782283 0.79769999
0.022240369 0.17775628 0.79684627
0.026536191 0.17666 0.79611117
-0.015900001 0.18095715 0.79500002
-0.013414605 0.18351272 0.79733336
-0.0053200005 0.18468001 0.79800004
-0.0019752383 0.18397944 0.79760009
0.0024286669 0.18260181 0.79689997
0.0070778574 0.18203644 0.7964167
0.012871429 0.1817143 0.79500002
0.01711143 0.18156287 0.79500002
0.021200001 0.18095715 0.79500002
-0.012471294 0.18730153 0.79714292
-0.0073890057 0.18761258 0.79754543
-0.0022741801 0.18717028 0.79566675
0.0030285716 0.18550001 0.79500002
-0.012128572 0.19028193 0.796
-0.0075825006 0.19144753 0.79612499
-0.0037857145 0.19004287 0.79500002
0.22358859 -0.21057144 0.80400002
0.2279924 -0.21090731 0.8033334
0.23048002 -0.2136343 0.80400002
0.21976002 -0.20674287 0.80400002
0.22340256 -0.20733717 0.80333328
0.22742248 -0.20740192 0.80240005
0.21257144 -0.20038097 0.80000001
0.21787664 -0.20240659 0.80333328
0.2226705 -0.20213403 0.80145466
0.22753526 -0.20379159 0.8005715
0.23085716 -0.20342858 0.80000001
0.21232978 -0.19744931 0.80125004
0.21714288 -0.19885716 0.80000001
0.22189781 -0.19902289 0.80066669
0.21182431 -0.19235858 0.80150002
0.26198667 -0.016040001 0.80200005
0.26129591 -0.012454605 0.80066675
0.25965464 -0.0063695246 0.80266666
0.26138645 -0.008197858 0.80075002
0.25421715 -0.00076571433 0.80400002
0.25825039 -0.0017834923 0.80200005
0.26089621 -0.0038142861 0.801
0.24885716 0.002297143 0.80400002
0.25221226 0.0022922223 0.80250001
0.25657147 0.0020952383 0.80000007
-0.095714293 0.0099542867 0.80400002
-0.092575245 0.0091803176 0.8033334
-0.087936312 0.0084095243 0.80288887
-0.082767837 0.0089121703 0.80222219
0.24426287 0.0099542867 0.80400002
0.24771217 0.0078519741 0.80171436
0.25178704 0.0063514295 0.80033338
-0.10107428 0.014548573 0.80400002
-0.096904054 0.01318643 0.80275005
-0.092439063 0.012769049 0.80050004
-0.088000007 0.011809524 0.80000001
-0.080000006 0.011428572 0.80000001
-0.077271752 0.011476192 0.8033334
0.24376786 0.013172144 0.80175006
0.24609526 0.012190477 0.80000001
-0.10145873 0.017078415 0.80300009
-0.097667769 0.017311838 0.80028576
0.23837098 0.018748097 0.80350006
0.24236277 0.017233018 0.80222225
-0.10146001 0.021359049 0.801
-0.099809527 0.020571429 0.80000001
0.22990668 0.023678096 0.80200005
0.23305748 0.022922859 0.80233335
0.23706 0.021979241 0.80140013
0.24050796 0.021079367 0.80000007
-0.074181914 0.026000954 0.80300003
0.2243543 0.029862858 0.80400002
0.22832589 0.027975416 0.80181825
0.23213394 0.027130097 0.8002001
0.23664764 0.025752384 0.80000001
-0.071826994 0.032856192 0.80233335
0.21286859 0.033691432 0.80400002
0.21753716 0.033407621 0.80333334
0.22272439 0.033314835 0.80285722
0.22637667 0.032611907 0.80100006
-0.07103429 0.035899051 0.80200005
-0.069506668 0.037426669 0.80200005
0.20444573 0.039051432 0.80400002
0.20781977 0.037818335 0.80225003
0.21207662 0.036885507 0.80133337
0.21683812 0.036419045 0.80000001
0.22228193 0.037046481 0.80040008
0.22628573 0.036571428 0.80000001
-0.068512395 0.042287078 0.80314285
0.19985144 0.042880002 0.80400002
0.20347102 0.042582691 0.80236369
0.20728934 0.042219624 0.8002001
0.21104763 0.040380955 0.80000001
-0.067354068 0.046971433 0.80266666
-0.063554287 0.049771432 0.80400002
0.19372572 0.049771432 0.80400002
0.19782495 0.047841221 0.80200005
0.2021997 0.047021907 0.80066681
0.20723811 0.046476193 0.80000001
-0.066110007 0.052350953 0.80250001
-0.063733339 0.053340953 0.80240005
0.17333716 0.053699054 0.80320007
0.17805357 0.053166434 0.80325001
0.18251002 0.053949051 0.80350006
0.18836573 0.054365717 0.80400002
0.19286115 0.052888829 0.80272728
0.19682173 0.051987436 0.80039996
-0.062753528 0.057867434 0.8016001
0.16462858 0.058960006 0.80400002
0.16820519 0.057959735 0.80228579
0.17224784 0.056681693 0.80066675
0.17721908 0.056228574 0.80000001
0.18258287 0.056284197 0.80080003
0.1877082 0.057226669 0.80120003
0.19157112 0.056658097 0.80033338
-0.061664131 0.06217334 0.80155557
-0.058960006 0.062788576 0.80400002
0.15906954 0.064239055 0.80300003
0.1622238 0.062618919 0.80185723
0.16685717 0.060952388 0.80000007
-0.060340956 0.06645143 0.80200005
-0.058430482 0.068360001 0.80200005
0.15769573 0.067892864 0.80250001
0.16184478 0.067329213 0.80033344
-0.057428576 0.071211435 0.80400002
0.1493143 0.074274294 0.80400002
0.15263195 0.072961278 0.80266666
0.15666811 0.071854286 0.80050004
-0.054365717 0.078868575 0.80400002
0.14395429 0.078102857 0.80400002
0.14745525 0.077164866 0.80222225
0.15227585 0.076865628 0.80054551
0.15619048 0.075428575 0.80000001
-0.053333335 0.080761909 0.80000001
0.134 0.084994294 0.80400002
0.13779791 0.08390329 0.80333334
0.14231771 0.082226798 0.80157155
0.14682993 0.081088446 0.80000007
0.15085715 0.080000006 0.80000001
0.12297372 0.089282289 0.80400002
0.12773798 0.088399202 0.80314285
0.13247563 0.08801125 0.80220002
0.13688883 0.087128818 0.80075008
0.11950731 0.093517467 0.80266666
0.12266667 0.092267439 0.80200005
0.12730797 0.092241272 0.80044454
0.13130161 0.091682546 0.80000007
0.11358096 0.098266676 0.80400008
0.11734556 0.097109377 0.80183339
0.12228572 0.095619053 0.80000001
0.12571429 0.095238104 0.80000001
-0.045770481 0.10222381 0.801
-0.044952385 0.10438096 0.80000001
0.10369001 0.10445477 0.80350006
0.10783096 0.10343286 0.80300003
0.11232573 0.10239017 0.80233335
0.11540993 0.10199276 0.80040008
-0.04298972 0.10816383 0.80319995
0.083219372 0.10841493 0.80166674
0.087674998 0.10791977 0.80225003
0.092498422 0.10855049 0.80266666
0.097605959 0.10830263 0.80225003
0.10244121 0.10743482 0.80109096
0.10751811 0.10751683 0.80066669
0.11161906 0.10628572 0.80000001
-0.041336384 0.11180573 0.80080003
-0.039051432 0.11409143 0.80400002
0.081969343 0.11204287 0.80140001
0.088 0.11085715 0.80000001
0.092267945 0.11133017 0.80066675
0.097583815 0.11130714 0.80050009
0.10285716 0.11047621 0.80000007
0.10742858 0.11047621 0.80000007
-0.040481906 0.11839049 0.80200005
-0.038353473 0.11746532 0.80314291
0.077635102 0.11847321 0.80257148
0.080507949 0.11682542 0.80000007
-0.038476195 0.12307684 0.80266666
0.073624767 0.1235242 0.80360001
0.07647524 0.1222462 0.801
-0.036978416 0.12878795 0.8033334
-0.033691429 0.12940572 0.80400002
0.069680005 0.12940572 0.80400002
0.072586134 0.12760112 0.80228579
0.075428575 0.12571429 0.80000001
-0.035943814 0.13153809 0.80300003
-0.03328082 0.13235566 0.80200011
-0.029862858 0.134 0.80400002
0.069253817 0.13276811 0.80350006
0.071365088 0.13206351 0.80000007
-0.031264126 0.13750923 0.80066669
-0.028631747 0.13704234 0.80288887
0.063668571 0.13909641 0.8016001
0.0677462 0.1375881 0.80150002
-0.028288383 0.14205752 0.8028
0.054365717 0.14472 0.80400002
0.057775244 0.14290716 0.8035
0.062208738 0.14236049 0.80150008
-0.026733335 0.14665334 0.80200005
0.048729848 0.14823145 0.80366671
0.052731648 0.14749525 0.80244446
0.057174187 0.14712848 0.80044448
0.06069842 0.14603177 0.80000007
-0.02514286 0.15009525 0.80000001
0.039051432 0.15390858 0.80400002
0.042792764 0.15268306 0.80240005
0.047458321 0.15211563 0.80076933
0.051809527 0.15085715 0.80000001
0.032895003 0.15854502 0.80324996
0.03754719 0.15748 0.80163646
0.042362589 0.15703526 0.80042869
0.046476193 0.15695238 0.80000001
-0.021149209 0.16282669 0.80266666
-0.019142859 0.16462858 0.80400002
0.028528983 0.16319947 0.80342859
0.032807834 0.16250986 0.80111116
0.037142858 0.16209526 0.80000007
0.041142859 0.16076192 0.80000001
-0.018053651 0.16731843 0.80100006
0.0099542867 0.16922286 0.80400002
0.013782859 0.16922286 0.80400002
0.017611429 0.16922288 0.80400008
0.02275924 0.16880114 0.80199999
0.027229119 0.1674109 0.80057156
0.032761905 0.16609526 0.80000007
0.035809524 0.16609526 0.80000001
-0.016070001 0.1729424 0.80350006
-0.014548573 0.17305145 0.80400002
0.0038285716 0.17381716 0.80400002
0.0079766 0.17308383 0.80314291
0.013000953 0.17283431 0.80299997
0.017566986 0.17261904 0.80200005
0.021611005 0.17229547 0.8008889
0.02514286 0.17142858 0.80000001
-0.01351598 0.17775218 0.80333334
-0.0076571433 0.17994288 0.80400002
-0.002297143 0.17994289 0.80400008
0.0026000002 0.17777336 0.80319995
0.0073684664 0.17711367 0.80044448
0.013333335 0.17638096 0.80000001
0.016761906 0.17600001 0.80000001
-0.012449208 0.18166254 0.80033338
-0.0076363496 0.18251097 0.80183339
-0.0025055786 0.18178886 0.8005715
0.0015238096 0.18057144 0.80000001
-0.0087619051 0.18590477 0.80000001
0.22323239 -0.21759558 0.80733341
0.22711143 -0.21712193 0.8070001
0.21469715 -0.21008001 0.80800003
0.21828829 -0.21213208 0.80800003
0.22225717 -0.21303684 0.80688894
0.22717336 -0.21396497 0.8064
0.21337798 -0.20656219 0.80800003
0.21768548 -0.20780681 0.80685723
0.22145811 -0.20840856 0.80600005
0.21238129 -0.20264733 0.8070001
0.21621272 -0.20444255 0.80600011
0.2109724 -0.19790667 0.80700004
0.21109526 -0.19344002 0.80600005
0.25932953 -0.01000381 0.80800003
0.2607882 -0.012754667 0.80680007
0.25298095 -0.0063485713 0.80800003
0.25743473 -0.0069166142 0.806889
0.26022288 -0.00844381 0.80600005
0.24947621 -0.00076761912 0.80600005
0.25221586 -0.0026154288 0.80740005
0.25676861 -0.0034542861 0.80600005
-0.090547308 0.0033346033 0.80800003
-0.086848587 0.0030733335 0.8070001
-0.0838781 0.0030780954 0.80800003
0.24830936 0.0026133338 0.80720007
-0.10080762 0.008464762 0.80800003
-0.097824775 0.0087060323 0.80666673
-0.092670962 0.0065366672 0.80750006
-0.087508574 0.0053733336 0.80600005
-0.083004773 0.0061485721 0.80700004
0.24424955 0.0079447627 0.80733341
0.24609478 0.0061519053 0.80750006
-0.10542477 0.012312382 0.80800003
-0.10237693 0.012037885 0.80688894
-0.099022865 0.011514287 0.80600005
-0.07926096 0.01000381 0.80800003
0.23855239 0.013851429 0.80800003
0.24210003 0.012295715 0.8070001
0.23344001 0.017905308 0.80742866
0.23722614 0.017234288 0.80685729
0.24026477 0.016120002 0.80600005
0.21854478 0.023855239 0.80800003
0.2223924 0.023855239 0.80800003
0.22781907 0.02353562 0.80760002
0.23169017 0.021273017 0.80733341
-0.071709126 0.028221227 0.80714297
0.21358256 0.028203499 0.80766672
0.2175051 0.02766699 0.80700004
0.22237512 0.027728941 0.80707693
0.22668736 0.026455514 0.80685729
-0.069853336 0.032240003 0.80600005
0.2034108 0.03411556 0.80800003
0.20761581 0.033372 0.80740005
0.2116688 0.031505823 0.80688894
0.21723621 0.031472381 0.80600011
0.22260953 0.031472381 0.80600005
-0.069085717 0.038380954 0.80600005
0.19468954 0.039245717 0.80800003
0.19776765 0.039245717 0.80800003
0.20280173 0.037640572 0.80660009
0.20648953 0.036845718 0.80600005
-0.066056669 0.042244285 0.80650002
-0.063712388 0.043754287 0.80600005
0.18750732 0.043349847 0.80800003
0.19259085 0.042463727 0.80799997
0.1974944 0.042265192 0.80688894
0.2011162 0.040683813 0.80600005
-0.065247625 0.046824768 0.80600011
-0.063407622 0.047649525 0.80700004
0.17274287 0.048951752 0.80733341
0.17754 0.049187623 0.8070001
0.18266383 0.048931114 0.80700004
0.18751827 0.047551595 0.8075
0.19222727 0.04721421 0.80661541
0.19635697 0.046517722 0.80600005
-0.061930295 0.053019047 0.80680007
-0.059253339 0.05386667 0.80800003
0.16390859 0.054636195 0.80800003
0.16742954 0.052946672 0.80766666
